-908.000000 112.883872 100.613306
-908.000000 114.716187 99.811668
-908.000000 116.548502 99.010031
-908.000000 118.380816 98.208393
-908.000000 120.213131 97.406755
-908.000000 122.045446 96.605118
-908.000000 123.877760 95.803480
-908.000000 125.710075 95.001842
-908.000000 127.542390 94.200204
-908.000000 129.374704 93.398567
-908.000000 131.207019 92.596929
-908.000000 133.039334 91.795291
-908.000000 134.871648 90.993654
-908.000000 136.703963 90.192016
-908.000000 138.536278 89.390378
-908.000000 140.368592 88.588741
-908.000000 142.200907 87.787103
-908.000000 144.033222 86.985465
-908.000000 145.865536 86.183828
-908.000000 147.697851 85.382190
-908.000000 149.530166 84.580552
-908.000000 151.362480 83.778915
-908.000000 153.194795 82.977277
-908.000000 155.027110 82.175639
-908.000000 156.859424 81.374002
-908.000000 160.000000 80.000000
-908.000000 160.000000 80.000000
-906.000000 160.000000 80.000000
-904.000000 160.000000 80.000000
-902.000000 160.000000 80.000000
-900.000000 160.000000 80.000000
-898.000000 160.000000 80.000000
-896.000000 160.000000 80.000000
-894.000000 160.000000 80.000000
-892.000000 160.000000 80.000000
-890.000000 160.000000 80.000000
-888.000000 160.000000 80.000000
-886.000000 160.000000 80.000000
-884.000000 160.000000 80.000000
-882.000000 160.000000 80.000000
-880.000000 160.000000 80.000000
-878.000000 160.000000 80.000000
-876.000000 160.000000 80.000000
-874.000000 160.000000 80.000000
-872.000000 160.000000 80.000000
-870.000000 160.000000 80.000000
-868.000000 160.000000 80.000000
-866.000000 160.000000 80.000000
-864.000000 160.000000 80.000000
-862.000000 160.000000 80.000000
-860.000000 160.000000 80.000000
-858.000000 160.000000 80.000000
-856.000000 160.000000 80.000000
-854.000000 160.000000 80.000000
-852.000000 160.000000 80.000000
-850.000000 160.000000 80.000000
-848.000000 160.000000 80.000000
-846.000000 160.000000 80.000000
-844.000000 160.000000 80.000000
-842.000000 160.000000 80.000000
-840.000000 160.000000 80.000000
-838.000000 160.000000 80.000000
-836.000000 160.000000 80.000000
-834.000000 160.000000 80.000000
-832.000000 160.000000 80.000000
-830.000000 160.000000 80.000000
-828.000000 160.000000 80.000000
-826.000000 160.000000 80.000000
-824.000000 160.000000 80.000000
-822.000000 160.000000 80.000000
-820.000000 160.000000 80.000000
-818.000000 160.000000 80.000000
-816.000000 160.000000 80.000000
-814.000000 160.000000 80.000000
-812.000000 160.000000 80.000000
-810.000000 160.000000 80.000000
-808.000000 160.000000 80.000000
-806.000000 160.000000 80.000000
-804.000000 160.000000 80.000000
-802.000000 160.000000 80.000000
-800.000000 160.000000 80.000000
-798.000000 160.000000 80.000000
-796.000000 160.000000 80.000000
-794.000000 160.000000 80.000000
-792.000000 160.000000 80.000000
-790.000000 160.000000 80.000000
-788.000000 160.000000 80.000000
-786.000000 160.000000 80.000000
-784.000000 160.000000 80.000000
-782.000000 160.000000 80.000000
-780.000000 160.000000 80.000000
-778.000000 160.000000 80.000000
-776.000000 160.000000 80.000000
-774.000000 160.000000 80.000000
-772.000000 160.000000 80.000000
-770.000000 160.000000 80.000000
-768.000000 160.000000 80.000000
-766.000000 160.000000 80.000000
-764.000000 160.000000 80.000000
-762.000000 160.000000 80.000000
-760.000000 160.000000 80.000000
-758.000000 160.000000 80.000000
-756.000000 160.000000 80.000000
-754.000000 160.000000 80.000000
-752.000000 160.000000 80.000000
-750.000000 160.000000 80.000000
-748.000000 160.000000 80.000000
-746.000000 160.000000 80.000000
-744.000000 160.000000 80.000000
-742.000000 160.000000 80.000000
-740.000000 160.000000 80.000000
-738.000000 160.000000 80.000000
-736.000000 160.000000 80.000000
-734.000000 160.000000 80.000000
-732.000000 160.000000 80.000000
-730.000000 160.000000 80.000000
-728.000000 160.000000 80.000000
-726.000000 160.000000 80.000000
-724.000000 160.000000 80.000000
-722.000000 160.000000 80.000000
-720.000000 160.000000 80.000000
-718.000000 160.000000 80.000000
-716.000000 160.000000 80.000000
-714.000000 160.000000 80.000000
-712.000000 160.000000 80.000000
-710.000000 160.000000 80.000000
-708.000000 160.000000 80.000000
-706.000000 160.000000 80.000000
-704.000000 160.000000 80.000000
-702.000000 160.000000 80.000000
-700.000000 160.000000 80.000000
-698.000000 160.000000 80.000000
-696.000000 160.000000 80.000000
-694.000000 160.000000 80.000000
-692.000000 160.000000 80.000000
-690.000000 160.000000 80.000000
-688.000000 160.000000 80.000000
-686.000000 160.000000 80.000000
-684.000000 160.000000 80.000000
-682.000000 160.000000 80.000000
-680.000000 160.000000 80.000000
-678.000000 160.000000 80.000000
-676.000000 160.000000 80.000000
-674.000000 160.000000 80.000000
-672.000000 160.000000 80.000000
-670.000000 160.000000 80.000000
-668.000000 160.000000 80.000000
-666.000000 160.000000 80.000000
-664.000000 160.000000 80.000000
-662.000000 160.000000 80.000000
-660.000000 160.000000 80.000000
-658.000000 160.000000 80.000000
-656.000000 160.000000 80.000000
-654.000000 160.000000 80.000000
-652.000000 160.000000 80.000000
-650.000000 160.000000 80.000000
-648.000000 160.000000 80.000000
-646.000000 160.000000 80.000000
-644.000000 160.000000 80.000000
-642.000000 160.000000 80.000000
-640.000000 160.000000 80.000000
-638.000000 160.000000 80.000000
-636.000000 160.000000 80.000000
-634.000000 160.000000 80.000000
-632.000000 160.000000 80.000000
-630.000000 160.000000 80.000000
-628.000000 160.000000 80.000000
-626.000000 160.000000 80.000000
-624.000000 160.000000 80.000000
-622.000000 160.000000 80.000000
-620.000000 160.000000 80.000000
-618.000000 160.000000 80.000000
-616.000000 160.000000 80.000000
-614.000000 160.000000 80.000000
-612.000000 160.000000 80.000000
-610.000000 160.000000 80.000000
-608.000000 160.000000 80.000000
-606.000000 160.000000 80.000000
-604.000000 160.000000 80.000000
-602.000000 160.000000 80.000000
-600.000000 160.000000 80.000000
-598.000000 160.000000 80.000000
-596.000000 160.000000 80.000000
-594.000000 160.000000 80.000000
-592.000000 160.000000 80.000000
-590.000000 160.000000 80.000000
-588.000000 160.000000 80.000000
-586.000000 160.000000 80.000000
-584.000000 160.000000 80.000000
-582.000000 160.000000 80.000000
-580.000000 160.000000 80.000000
-578.000000 160.000000 80.000000
-576.000000 160.000000 80.000000
-574.000000 160.000000 80.000000
-572.000000 160.000000 80.000000
-570.000000 160.000000 80.000000
-568.000000 160.000000 80.000000
-566.000000 160.000000 80.000000
-564.000000 160.000000 80.000000
-562.000000 160.000000 80.000000
-560.000000 160.000000 80.000000
-558.000000 160.000000 80.000000
-556.000000 160.000000 80.000000
-554.000000 160.000000 80.000000
-552.000000 160.000000 80.000000
-550.000000 160.000000 80.000000
-548.000000 160.000000 80.000000
-546.000000 160.000000 80.000000
-544.000000 160.000000 80.000000
-542.000000 160.000000 80.000000
-540.000000 160.000000 80.000000
-538.000000 160.000000 80.000000
-536.000000 160.000000 80.000000
-534.000000 160.000000 80.000000
-532.000000 160.000000 80.000000
-530.000000 160.000000 80.000000
-528.000000 160.000000 80.000000
-526.000000 160.000000 80.000000
-524.000000 160.000000 80.000000
-522.000000 160.000000 80.000000
-520.000000 160.000000 80.000000
-518.000000 160.000000 80.000000
-516.000000 160.000000 80.000000
-514.000000 160.000000 80.000000
-512.000000 160.000000 80.000000
-510.000000 160.000000 80.000000
-508.000000 160.000000 80.000000
-506.000000 160.000000 80.000000
-504.000000 160.000000 80.000000
-502.000000 160.000000 80.000000
-500.000000 160.000000 80.000000
-498.000000 160.000000 80.000000
-496.000000 160.000000 80.000000
-494.000000 160.000000 80.000000
-492.000000 160.000000 80.000000
-490.000000 160.000000 80.000000
-488.000000 160.000000 80.000000
-486.000000 160.000000 80.000000
-484.000000 160.000000 80.000000
-482.000000 160.000000 80.000000
-480.000000 160.000000 80.000000
-478.000000 160.000000 80.000000
-476.000000 160.000000 80.000000
-474.000000 160.000000 80.000000
-472.000000 160.000000 80.000000
-470.000000 160.000000 80.000000
-468.000000 160.000000 80.000000
-466.000000 160.000000 80.000000
-464.000000 160.000000 80.000000
-462.000000 160.000000 80.000000
-460.000000 160.000000 80.000000
-458.000000 160.000000 80.000000
-456.000000 160.000000 80.000000
-454.000000 160.000000 80.000000
-452.000000 160.000000 80.000000
-450.000000 160.000000 80.000000
-448.000000 160.000000 80.000000
-446.000000 160.000000 80.000000
-444.000000 160.000000 80.000000
-442.000000 160.000000 80.000000
-440.000000 160.000000 80.000000
-438.000000 160.000000 80.000000
-436.000000 160.000000 80.000000
-434.000000 160.000000 80.000000
-432.000000 160.000000 80.000000
-430.000000 160.000000 80.000000
-428.000000 160.000000 80.000000
-426.000000 160.000000 80.000000
-424.000000 160.000000 80.000000
-422.000000 160.000000 80.000000
-420.000000 160.000000 80.000000
-418.000000 160.000000 80.000000
-416.000000 160.000000 80.000000
-414.000000 160.000000 80.000000
-412.000000 160.000000 80.000000
-410.000000 160.000000 80.000000
-408.000000 160.000000 80.000000
-406.000000 160.000000 80.000000
-404.000000 160.000000 80.000000
-402.000000 160.000000 80.000000
-400.000000 160.000000 80.000000
-398.000000 160.000000 80.000000
-396.000000 160.000000 80.000000
-394.000000 160.000000 80.000000
-392.000000 160.000000 80.000000
-390.000000 160.000000 80.000000
-388.000000 160.000000 80.000000
-386.000000 160.000000 80.000000
-384.000000 160.000000 80.000000
-382.000000 160.000000 80.000000
-380.000000 160.000000 80.000000
-378.000000 160.000000 80.000000
-376.000000 160.000000 80.000000
-374.000000 160.000000 80.000000
-372.000000 160.000000 80.000000
-370.000000 160.000000 80.000000
-368.000000 160.000000 80.000000
-366.000000 160.000000 80.000000
-364.000000 160.000000 80.000000
-362.000000 160.000000 80.000000
-360.000000 160.000000 80.000000
-358.000000 160.000000 80.000000
-356.000000 160.000000 80.000000
-354.000000 160.000000 80.000000
-352.000000 160.000000 80.000000
-350.000000 160.000000 80.000000
-348.000000 160.000000 80.000000
-346.000000 160.000000 80.000000
-344.000000 160.000000 80.000000
-342.000000 160.000000 80.000000
-340.000000 160.000000 80.000000
-338.000000 160.000000 80.000000
-336.000000 160.000000 80.000000
-334.000000 160.000000 80.000000
-332.000000 160.000000 80.000000
-330.000000 160.000000 80.000000
-328.000000 160.000000 80.000000
-326.000000 160.000000 80.000000
-324.000000 160.000000 80.000000
-322.000000 160.000000 80.000000
-320.000000 160.000000 80.000000
-318.000000 160.000000 80.000000
-316.000000 160.000000 80.000000
-314.000000 160.000000 80.000000
-312.000000 160.000000 80.000000
-310.000000 160.000000 80.000000
-308.000000 160.000000 80.000000
-306.000000 160.000000 80.000000
-304.000000 160.000000 80.000000
-302.000000 160.000000 80.000000
-300.000000 160.000000 80.000000
-298.000000 160.000000 80.000000
-296.000000 160.000000 80.000000
-294.000000 160.000000 80.000000
-292.000000 160.000000 80.000000
-290.000000 160.000000 80.000000
-288.000000 160.000000 80.000000
-286.000000 160.000000 80.000000
-284.000000 160.000000 80.000000
-282.000000 160.000000 80.000000
-280.000000 160.000000 80.000000
-278.000000 160.000000 80.000000
-276.000000 160.000000 80.000000
-274.000000 160.000000 80.000000
-272.000000 160.000000 80.000000
-270.000000 160.000000 80.000000
-268.000000 160.000000 80.000000
-266.000000 160.000000 80.000000
-264.000000 160.000000 80.000000
-262.000000 160.000000 80.000000
-260.000000 160.000000 80.000000
-258.000000 160.000000 80.000000
-256.000000 160.000000 80.000000
-254.000000 160.000000 80.000000
-252.000000 160.000000 80.000000
-250.000000 160.000000 80.000000
-248.000000 160.000000 80.000000
-246.000000 160.000000 80.000000
-244.000000 160.000000 80.000000
-242.000000 160.000000 80.000000
-240.000000 160.000000 80.000000
-238.000000 160.000000 80.000000
-236.000000 160.000000 80.000000
-234.000000 160.000000 80.000000
-232.000000 160.000000 80.000000
-230.000000 160.000000 80.000000
-228.000000 160.000000 80.000000
-226.000000 160.000000 80.000000
-224.000000 160.000000 80.000000
-222.000000 160.000000 80.000000
-220.000000 160.000000 80.000000
-218.000000 160.000000 80.000000
-216.000000 160.000000 80.000000
-214.000000 160.000000 80.000000
-212.000000 160.000000 80.000000
-210.000000 160.000000 80.000000
-208.000000 160.000000 80.000000
-206.000000 160.000000 80.000000
-204.000000 160.000000 80.000000
-202.000000 160.000000 80.000000
-200.000000 160.000000 80.000000
-198.000000 160.000000 80.000000
-196.000000 160.000000 80.000000
-194.000000 160.000000 80.000000
-192.000000 160.000000 80.000000
-190.000000 160.000000 80.000000
-188.000000 160.000000 80.000000
-186.000000 160.000000 80.000000
-184.000000 160.000000 80.000000
-182.000000 160.000000 80.000000
-180.000000 160.000000 80.000000
-178.000000 160.000000 80.000000
-176.000000 160.000000 80.000000
-174.000000 160.000000 80.000000
-172.000000 160.000000 80.000000
-170.000000 160.000000 80.000000
-168.000000 160.000000 80.000000
-166.000000 160.000000 80.000000
-164.000000 160.000000 80.000000
-162.000000 160.000000 80.000000
-160.000000 160.000000 80.000000
-158.000000 160.000000 80.000000
-156.000000 160.000000 80.000000
-154.000000 160.000000 80.000000
-152.000000 160.000000 80.000000
-150.000000 160.000000 80.000000
-148.000000 160.000000 80.000000
-146.000000 160.000000 80.000000
-144.000000 160.000000 80.000000
-142.000000 160.000000 80.000000
-140.000000 160.000000 80.000000
-138.000000 160.000000 80.000000
-136.000000 160.000000 80.000000
-134.000000 160.000000 80.000000
-132.000000 160.000000 80.000000
-130.000000 160.000000 80.000000
-128.000000 160.000000 80.000000
-126.000000 160.000000 80.000000
-124.000000 160.000000 80.000000
-122.000000 160.000000 80.000000
-120.000000 160.000000 80.000000
-118.000000 160.000000 80.000000
-116.000000 160.000000 80.000000
-114.000000 160.000000 80.000000
-112.000000 160.000000 80.000000
-110.000000 160.000000 80.000000
-108.000000 160.000000 80.000000
-106.000000 160.000000 80.000000
-104.000000 160.000000 80.000000
-102.000000 160.000000 80.000000
-100.000000 160.000000 80.000000
-98.000000 160.000000 80.000000
-96.000000 160.000000 80.000000
-94.000000 160.000000 80.000000
-92.000000 160.000000 80.000000
-90.000000 160.000000 80.000000
-88.000000 160.000000 80.000000
-86.000000 160.000000 80.000000
-84.000000 160.000000 80.000000
-82.000000 160.000000 80.000000
-80.000000 160.000000 80.000000
-78.000000 160.000000 80.000000
-76.000000 160.000000 80.000000
-74.000000 160.000000 80.000000
-72.000000 160.000000 80.000000
-70.000000 160.000000 80.000000
-68.000000 160.000000 80.000000
-66.000000 160.000000 80.000000
-64.000000 160.000000 80.000000
-62.000000 160.000000 80.000000
-60.000000 160.000000 80.000000
-58.000000 160.000000 80.000000
-56.000000 160.000000 80.000000
-54.000000 160.000000 80.000000
-52.000000 160.000000 80.000000
-48.000000 160.000000 80.000000
-48.000000 160.000000 80.000000
-48.000000 158.000000 80.000000
-48.000000 156.000000 80.000000
-48.000000 154.000000 80.000000
-48.000000 152.000000 80.000000
-48.000000 150.000000 80.000000
-48.000000 148.000000 80.000000
-48.000000 146.000000 80.000000
-48.000000 144.000000 80.000000
-48.000000 142.000000 80.000000
-48.000000 140.000000 80.000000
-48.000000 138.000000 80.000000
-48.000000 136.000000 80.000000
-48.000000 134.000000 80.000000
-48.000000 132.000000 80.000000
-48.000000 130.000000 80.000000
-48.000000 128.000000 80.000000
-48.000000 126.000000 80.000000
-48.000000 124.000000 80.000000
-48.000000 122.000000 80.000000
-48.000000 120.000000 80.000000
-48.000000 118.000000 80.000000
-48.000000 116.000000 80.000000
-48.000000 114.000000 80.000000
-48.000000 112.000000 80.000000
-48.000000 110.000000 80.000000
-48.000000 108.000000 80.000000
-48.000000 106.000000 80.000000
-48.000000 104.000000 80.000000
-48.000000 102.000000 80.000000
-48.000000 100.000000 80.000000
-48.000000 98.000000 80.000000
-48.000000 96.000000 80.000000
-48.000000 94.000000 80.000000
-48.000000 92.000000 80.000000
-48.000000 90.000000 80.000000
-48.000000 88.000000 80.000000
-48.000000 86.000000 80.000000
-48.000000 84.000000 80.000000
-48.000000 82.000000 80.000000
-48.000000 80.000000 80.000000
-48.000000 78.000000 80.000000
-48.000000 76.000000 80.000000
-48.000000 74.000000 80.000000
-48.000000 72.000000 80.000000
-48.000000 70.000000 80.000000
-48.000000 68.000000 80.000000
-48.000000 66.000000 80.000000
-48.000000 64.000000 80.000000
-48.000000 62.000000 80.000000
-48.000000 60.000000 80.000000
-48.000000 58.000000 80.000000
-48.000000 56.000000 80.000000
-48.000000 54.000000 80.000000
-48.000000 52.000000 80.000000
-48.000000 50.000000 80.000000
-48.000000 48.000000 80.000000
-48.000000 46.000000 80.000000
-48.000000 44.000000 80.000000
-48.000000 42.000000 80.000000
-48.000000 40.000000 80.000000
-48.000000 38.000000 80.000000
-48.000000 36.000000 80.000000
-48.000000 34.000000 80.000000
-48.000000 32.000000 80.000000
-48.000000 30.000000 80.000000
-48.000000 28.000000 80.000000
-48.000000 26.000000 80.000000
-48.000000 24.000000 80.000000
-48.000000 22.000000 80.000000
-48.000000 20.000000 80.000000
-48.000000 18.000000 80.000000
-48.000000 16.000000 80.000000
-48.000000 14.000000 80.000000
-48.000000 12.000000 80.000000
-48.000000 10.000000 80.000000
-48.000000 8.000000 80.000000
-48.000000 6.000000 80.000000
-48.000000 4.000000 80.000000
-48.000000 2.000000 80.000000
-48.000000 0.000000 80.000000
-48.000000 -2.000000 80.000000
-48.000000 -4.000000 80.000000
-48.000000 -6.000000 80.000000
-48.000000 -8.000000 80.000000
-48.000000 -10.000000 80.000000
-48.000000 -12.000000 80.000000
-48.000000 -14.000000 80.000000
-48.000000 -16.000000 80.000000
-48.000000 -18.000000 80.000000
-48.000000 -20.000000 80.000000
-48.000000 -22.000000 80.000000
-48.000000 -24.000000 80.000000
-48.000000 -26.000000 80.000000
-48.000000 -28.000000 80.000000
-48.000000 -30.000000 80.000000
-48.000000 -32.000000 80.000000
-48.000000 -34.000000 80.000000
-48.000000 -36.000000 80.000000
-48.000000 -38.000000 80.000000
-48.000000 -40.000000 80.000000
-48.000000 -42.000000 80.000000
-48.000000 -44.000000 80.000000
-48.000000 -46.000000 80.000000
-48.000000 -48.000000 80.000000
-48.000000 -50.000000 80.000000
-48.000000 -52.000000 80.000000
-48.000000 -54.000000 80.000000
-48.000000 -56.000000 80.000000
-48.000000 -58.000000 80.000000
-48.000000 -60.000000 80.000000
-48.000000 -62.000000 80.000000
-48.000000 -64.000000 80.000000
-48.000000 -66.000000 80.000000
-48.000000 -68.000000 80.000000
-48.000000 -70.000000 80.000000
-48.000000 -72.000000 80.000000
-48.000000 -74.000000 80.000000
-48.000000 -76.000000 80.000000
-48.000000 -78.000000 80.000000
-48.000000 -80.000000 80.000000
-48.000000 -82.000000 80.000000
-48.000000 -84.000000 80.000000
-48.000000 -86.000000 80.000000
-48.000000 -88.000000 80.000000
-48.000000 -90.000000 80.000000
-48.000000 -92.000000 80.000000
-48.000000 -94.000000 80.000000
-48.000000 -96.000000 80.000000
-48.000000 -98.000000 80.000000
-48.000000 -100.000000 80.000000
-48.000000 -102.000000 80.000000
-48.000000 -104.000000 80.000000
-48.000000 -106.000000 80.000000
-48.000000 -108.000000 80.000000
-48.000000 -110.000000 80.000000
-48.000000 -112.000000 80.000000
-48.000000 -114.000000 80.000000
-48.000000 -116.000000 80.000000
-48.000000 -118.000000 80.000000
-48.000000 -120.000000 80.000000
-48.000000 -122.000000 80.000000
-48.000000 -124.000000 80.000000
-48.000000 -126.000000 80.000000
-48.000000 -128.000000 80.000000
-48.000000 -130.000000 80.000000
-48.000000 -132.000000 80.000000
-48.000000 -134.000000 80.000000
-48.000000 -136.000000 80.000000
-48.000000 -138.000000 80.000000
-48.000000 -140.000000 80.000000
-48.000000 -142.000000 80.000000
-48.000000 -144.000000 80.000000
-48.000000 -146.000000 80.000000
-48.000000 -148.000000 80.000000
-48.000000 -150.000000 80.000000
-48.000000 -152.000000 80.000000
-48.000000 -154.000000 80.000000
-48.000000 -156.000000 80.000000
-48.000000 -158.000000 80.000000
-48.000000 -160.000000 80.000000
-48.000000 -162.000000 80.000000
-48.000000 -164.000000 80.000000
-48.000000 -166.000000 80.000000
-48.000000 -168.000000 80.000000
-48.000000 -170.000000 80.000000
-48.000000 -172.000000 80.000000
-48.000000 -174.000000 80.000000
-48.000000 -176.000000 80.000000
-48.000000 -178.000000 80.000000
-48.000000 -180.000000 80.000000
-48.000000 -182.000000 80.000000
-48.000000 -184.000000 80.000000
-48.000000 -186.000000 80.000000
-48.000000 -188.000000 80.000000
-48.000000 -190.000000 80.000000
-48.000000 -192.000000 80.000000
-48.000000 -194.000000 80.000000
-48.000000 -196.000000 80.000000
-48.000000 -198.000000 80.000000
-48.000000 -200.000000 80.000000
-48.000000 -202.000000 80.000000
-48.000000 -204.000000 80.000000
-48.000000 -206.000000 80.000000
-48.000000 -208.000000 80.000000
-48.000000 -210.000000 80.000000
-48.000000 -212.000000 80.000000
-48.000000 -214.000000 80.000000
-48.000000 -216.000000 80.000000
-48.000000 -218.000000 80.000000
-48.000000 -220.000000 80.000000
-48.000000 -222.000000 80.000000
-48.000000 -224.000000 80.000000
-48.000000 -226.000000 80.000000
-48.000000 -228.000000 80.000000
-48.000000 -230.000000 80.000000
-48.000000 -232.000000 80.000000
-48.000000 -234.000000 80.000000
-48.000000 -236.000000 80.000000
-48.000000 -238.000000 80.000000
-48.000000 -240.000000 80.000000
-48.000000 -242.000000 80.000000
-48.000000 -244.000000 80.000000
-48.000000 -246.000000 80.000000
-48.000000 -248.000000 80.000000
-48.000000 -250.000000 80.000000
-48.000000 -252.000000 80.000000
-48.000000 -254.000000 80.000000
-48.000000 -256.000000 80.000000
-48.000000 -258.000000 80.000000
-48.000000 -260.000000 80.000000
-48.000000 -262.000000 80.000000
-48.000000 -264.000000 80.000000
-48.000000 -266.000000 80.000000
-48.000000 -268.000000 80.000000
-48.000000 -270.000000 80.000000
-48.000000 -272.000000 80.000000
-48.000000 -274.000000 80.000000
-48.000000 -276.000000 80.000000
-48.000000 -278.000000 80.000000
-48.000000 -280.000000 80.000000
-48.000000 -282.000000 80.000000
-48.000000 -284.000000 80.000000
-48.000000 -286.000000 80.000000
-48.000000 -288.000000 80.000000
-48.000000 -290.000000 80.000000
-48.000000 -292.000000 80.000000
-48.000000 -294.000000 80.000000
-48.000000 -296.000000 80.000000
-48.000000 -298.000000 80.000000
-48.000000 -300.000000 80.000000
-48.000000 -302.000000 80.000000
-48.000000 -304.000000 80.000000
-48.000000 -306.000000 80.000000
-48.000000 -308.000000 80.000000
-48.000000 -310.000000 80.000000
-48.000000 -312.000000 80.000000
-48.000000 -314.000000 80.000000
-48.000000 -316.000000 80.000000
-48.000000 -318.000000 80.000000
-48.000000 -320.000000 80.000000
-48.000000 -322.000000 80.000000
-48.000000 -324.000000 80.000000
-48.000000 -326.000000 80.000000
-48.000000 -328.000000 80.000000
-48.000000 -330.000000 80.000000
-48.000000 -332.000000 80.000000
-48.000000 -334.000000 80.000000
-48.000000 -336.000000 80.000000
-48.000000 -338.000000 80.000000
-48.000000 -340.000000 80.000000
-48.000000 -342.000000 80.000000
-48.000000 -344.000000 80.000000
-48.000000 -346.000000 80.000000
-48.000000 -348.000000 80.000000
-48.000000 -350.000000 80.000000
-48.000000 -352.000000 80.000000
-48.000000 -354.000000 80.000000
-48.000000 -356.000000 80.000000
-48.000000 -358.000000 80.000000
-48.000000 -360.000000 80.000000
-48.000000 -362.000000 80.000000
-48.000000 -364.000000 80.000000
-48.000000 -366.000000 80.000000
-48.000000 -368.000000 80.000000
-48.000000 -370.000000 80.000000
-48.000000 -372.000000 80.000000
-48.000000 -374.000000 80.000000
-48.000000 -376.000000 80.000000
-48.000000 -378.000000 80.000000
-48.000000 -380.000000 80.000000
-48.000000 -382.000000 80.000000
-48.000000 -384.000000 80.000000
-48.000000 -386.000000 80.000000
-48.000000 -388.000000 80.000000
-48.000000 -390.000000 80.000000
-48.000000 -392.000000 80.000000
-48.000000 -394.000000 80.000000
-48.000000 -396.000000 80.000000
-48.000000 -398.000000 80.000000
-48.000000 -400.000000 80.000000
-48.000000 -402.000000 80.000000
-48.000000 -404.000000 80.000000
-48.000000 -406.000000 80.000000
-48.000000 -408.000000 80.000000
-48.000000 -410.000000 80.000000
-48.000000 -412.000000 80.000000
-48.000000 -414.000000 80.000000
-48.000000 -416.000000 80.000000
-48.000000 -418.000000 80.000000
-48.000000 -420.000000 80.000000
-48.000000 -422.000000 80.000000
-48.000000 -424.000000 80.000000
-48.000000 -426.000000 80.000000
-48.000000 -428.000000 80.000000
-48.000000 -430.000000 80.000000
-48.000000 -432.000000 80.000000
-48.000000 -434.000000 80.000000
-48.000000 -436.000000 80.000000
-48.000000 -438.000000 80.000000
-48.000000 -440.000000 80.000000
-48.000000 -442.000000 80.000000
-48.000000 -444.000000 80.000000
-48.000000 -446.000000 80.000000
-48.000000 -448.000000 80.000000
-48.000000 -450.000000 80.000000
-48.000000 -452.000000 80.000000
-48.000000 -454.000000 80.000000
-48.000000 -456.000000 80.000000
-48.000000 -458.000000 80.000000
-48.000000 -460.000000 80.000000
-48.000000 -462.000000 80.000000
-48.000000 -464.000000 80.000000
-48.000000 -466.000000 80.000000
-48.000000 -468.000000 80.000000
-48.000000 -470.000000 80.000000
-48.000000 -472.000000 80.000000
-48.000000 -474.000000 80.000000
-48.000000 -476.000000 80.000000
-48.000000 -478.000000 80.000000
-48.000000 -480.000000 80.000000
-48.000000 -482.000000 80.000000
-48.000000 -484.000000 80.000000
-48.000000 -486.000000 80.000000
-48.000000 -488.000000 80.000000
-48.000000 -490.000000 80.000000
-48.000000 -492.000000 80.000000
-48.000000 -494.000000 80.000000
-48.000000 -496.000000 80.000000
-48.000000 -498.000000 80.000000
-48.000000 -500.000000 80.000000
-48.000000 -502.000000 80.000000
-48.000000 -504.000000 80.000000
-48.000000 -506.000000 80.000000
-48.000000 -508.000000 80.000000
-48.000000 -512.000000 80.000000
-48.000000 -512.000000 80.000000
-50.000000 -512.000000 80.000000
-52.000000 -512.000000 80.000000
-54.000000 -512.000000 80.000000
-56.000000 -512.000000 80.000000
-58.000000 -512.000000 80.000000
-60.000000 -512.000000 80.000000
-62.000000 -512.000000 80.000000
-64.000000 -512.000000 80.000000
-66.000000 -512.000000 80.000000
-68.000000 -512.000000 80.000000
-70.000000 -512.000000 80.000000
-72.000000 -512.000000 80.000000
-74.000000 -512.000000 80.000000
-76.000000 -512.000000 80.000000
-78.000000 -512.000000 80.000000
-80.000000 -512.000000 80.000000
-82.000000 -512.000000 80.000000
-84.000000 -512.000000 80.000000
-86.000000 -512.000000 80.000000
-88.000000 -512.000000 80.000000
-90.000000 -512.000000 80.000000
-92.000000 -512.000000 80.000000
-96.000000 -512.000000 80.000000
-96.000000 -512.000000 80.000000
-98.000000 -512.000000 80.000000
-100.000000 -512.000000 80.000000
-102.000000 -512.000000 80.000000
-104.000000 -512.000000 80.000000
-106.000000 -512.000000 80.000000
-108.000000 -512.000000 80.000000
-110.000000 -512.000000 80.000000
-112.000000 -512.000000 80.000000
-114.000000 -512.000000 80.000000
-116.000000 -512.000000 80.000000
-118.000000 -512.000000 80.000000
-120.000000 -512.000000 80.000000
-122.000000 -512.000000 80.000000
-124.000000 -512.000000 80.000000
-126.000000 -512.000000 80.000000
-128.000000 -512.000000 80.000000
-130.000000 -512.000000 80.000000
-132.000000 -512.000000 80.000000
-134.000000 -512.000000 80.000000
-136.000000 -512.000000 80.000000
-138.000000 -512.000000 80.000000
-140.000000 -512.000000 80.000000
-142.000000 -512.000000 80.000000
-144.000000 -512.000000 80.000000
-146.000000 -512.000000 80.000000
-148.000000 -512.000000 80.000000
-150.000000 -512.000000 80.000000
-152.000000 -512.000000 80.000000
-154.000000 -512.000000 80.000000
-156.000000 -512.000000 80.000000
-158.000000 -512.000000 80.000000
-160.000000 -512.000000 80.000000
-162.000000 -512.000000 80.000000
-164.000000 -512.000000 80.000000
-166.000000 -512.000000 80.000000
-168.000000 -512.000000 80.000000
-170.000000 -512.000000 80.000000
-172.000000 -512.000000 80.000000
-174.000000 -512.000000 80.000000
-176.000000 -512.000000 80.000000
-178.000000 -512.000000 80.000000
-180.000000 -512.000000 80.000000
-182.000000 -512.000000 80.000000
-184.000000 -512.000000 80.000000
-186.000000 -512.000000 80.000000
-188.000000 -512.000000 80.000000
-190.000000 -512.000000 80.000000
-192.000000 -512.000000 80.000000
-194.000000 -512.000000 80.000000
-196.000000 -512.000000 80.000000
-198.000000 -512.000000 80.000000
-200.000000 -512.000000 80.000000
-202.000000 -512.000000 80.000000
-204.000000 -512.000000 80.000000
-206.000000 -512.000000 80.000000
-208.000000 -512.000000 80.000000
-210.000000 -512.000000 80.000000
-212.000000 -512.000000 80.000000
-214.000000 -512.000000 80.000000
-216.000000 -512.000000 80.000000
-218.000000 -512.000000 80.000000
-220.000000 -512.000000 80.000000
-222.000000 -512.000000 80.000000
-224.000000 -512.000000 80.000000
-226.000000 -512.000000 80.000000
-228.000000 -512.000000 80.000000
-230.000000 -512.000000 80.000000
-232.000000 -512.000000 80.000000
-234.000000 -512.000000 80.000000
-236.000000 -512.000000 80.000000
-238.000000 -512.000000 80.000000
-240.000000 -512.000000 80.000000
-242.000000 -512.000000 80.000000
-244.000000 -512.000000 80.000000
-246.000000 -512.000000 80.000000
-248.000000 -512.000000 80.000000
-250.000000 -512.000000 80.000000
-252.000000 -512.000000 80.000000
-254.000000 -512.000000 80.000000
-256.000000 -512.000000 80.000000
-258.000000 -512.000000 80.000000
-260.000000 -512.000000 80.000000
-262.000000 -512.000000 80.000000
-264.000000 -512.000000 80.000000
-266.000000 -512.000000 80.000000
-268.000000 -512.000000 80.000000
-270.000000 -512.000000 80.000000
-272.000000 -512.000000 80.000000
-274.000000 -512.000000 80.000000
-276.000000 -512.000000 80.000000
-278.000000 -512.000000 80.000000
-280.000000 -512.000000 80.000000
-282.000000 -512.000000 80.000000
-284.000000 -512.000000 80.000000
-286.000000 -512.000000 80.000000
-288.000000 -512.000000 80.000000
-290.000000 -512.000000 80.000000
-292.000000 -512.000000 80.000000
-294.000000 -512.000000 80.000000
-296.000000 -512.000000 80.000000
-298.000000 -512.000000 80.000000
-300.000000 -512.000000 80.000000
-302.000000 -512.000000 80.000000
-304.000000 -512.000000 80.000000
-306.000000 -512.000000 80.000000
-308.000000 -512.000000 80.000000
-310.000000 -512.000000 80.000000
-312.000000 -512.000000 80.000000
-314.000000 -512.000000 80.000000
-316.000000 -512.000000 80.000000
-318.000000 -512.000000 80.000000
-320.000000 -512.000000 80.000000
-322.000000 -512.000000 80.000000
-324.000000 -512.000000 80.000000
-326.000000 -512.000000 80.000000
-328.000000 -512.000000 80.000000
-330.000000 -512.000000 80.000000
-332.000000 -512.000000 80.000000
-334.000000 -512.000000 80.000000
-336.000000 -512.000000 80.000000
-338.000000 -512.000000 80.000000
-340.000000 -512.000000 80.000000
-342.000000 -512.000000 80.000000
-344.000000 -512.000000 80.000000
-346.000000 -512.000000 80.000000
-348.000000 -512.000000 80.000000
-350.000000 -512.000000 80.000000
-352.000000 -512.000000 80.000000
-354.000000 -512.000000 80.000000
-356.000000 -512.000000 80.000000
-358.000000 -512.000000 80.000000
-360.000000 -512.000000 80.000000
-362.000000 -512.000000 80.000000
-364.000000 -512.000000 80.000000
-366.000000 -512.000000 80.000000
-368.000000 -512.000000 80.000000
-370.000000 -512.000000 80.000000
-372.000000 -512.000000 80.000000
-374.000000 -512.000000 80.000000
-376.000000 -512.000000 80.000000
-378.000000 -512.000000 80.000000
-380.000000 -512.000000 80.000000
-382.000000 -512.000000 80.000000
-384.000000 -512.000000 80.000000
-386.000000 -512.000000 80.000000
-388.000000 -512.000000 80.000000
-390.000000 -512.000000 80.000000
-392.000000 -512.000000 80.000000
-394.000000 -512.000000 80.000000
-396.000000 -512.000000 80.000000
-398.000000 -512.000000 80.000000
-400.000000 -512.000000 80.000000
-402.000000 -512.000000 80.000000
-404.000000 -512.000000 80.000000
-406.000000 -512.000000 80.000000
-408.000000 -512.000000 80.000000
-410.000000 -512.000000 80.000000
-412.000000 -512.000000 80.000000
-414.000000 -512.000000 80.000000
-416.000000 -512.000000 80.000000
-418.000000 -512.000000 80.000000
-420.000000 -512.000000 80.000000
-422.000000 -512.000000 80.000000
-424.000000 -512.000000 80.000000
-426.000000 -512.000000 80.000000
-428.000000 -512.000000 80.000000
-430.000000 -512.000000 80.000000
-432.000000 -512.000000 80.000000
-434.000000 -512.000000 80.000000
-436.000000 -512.000000 80.000000
-438.000000 -512.000000 80.000000
-440.000000 -512.000000 80.000000
-442.000000 -512.000000 80.000000
-444.000000 -512.000000 80.000000
-446.000000 -512.000000 80.000000
-448.000000 -512.000000 80.000000
-450.000000 -512.000000 80.000000
-452.000000 -512.000000 80.000000
-454.000000 -512.000000 80.000000
-456.000000 -512.000000 80.000000
-458.000000 -512.000000 80.000000
-460.000000 -512.000000 80.000000
-462.000000 -512.000000 80.000000
-464.000000 -512.000000 80.000000
-466.000000 -512.000000 80.000000
-468.000000 -512.000000 80.000000
-470.000000 -512.000000 80.000000
-472.000000 -512.000000 80.000000
-474.000000 -512.000000 80.000000
-476.000000 -512.000000 80.000000
-478.000000 -512.000000 80.000000
-480.000000 -512.000000 80.000000
-482.000000 -512.000000 80.000000
-484.000000 -512.000000 80.000000
-486.000000 -512.000000 80.000000
-488.000000 -512.000000 80.000000
-490.000000 -512.000000 80.000000
-492.000000 -512.000000 80.000000
-494.000000 -512.000000 80.000000
-496.000000 -512.000000 80.000000
-498.000000 -512.000000 80.000000
-500.000000 -512.000000 80.000000
-502.000000 -512.000000 80.000000
-504.000000 -512.000000 80.000000
-506.000000 -512.000000 80.000000
-508.000000 -512.000000 80.000000
-510.000000 -512.000000 80.000000
-512.000000 -512.000000 80.000000
-514.000000 -512.000000 80.000000
-516.000000 -512.000000 80.000000
-518.000000 -512.000000 80.000000
-520.000000 -512.000000 80.000000
-522.000000 -512.000000 80.000000
-524.000000 -512.000000 80.000000
-526.000000 -512.000000 80.000000
-528.000000 -512.000000 80.000000
-530.000000 -512.000000 80.000000
-532.000000 -512.000000 80.000000
-534.000000 -512.000000 80.000000
-536.000000 -512.000000 80.000000
-538.000000 -512.000000 80.000000
-540.000000 -512.000000 80.000000
-542.000000 -512.000000 80.000000
-544.000000 -512.000000 80.000000
-546.000000 -512.000000 80.000000
-548.000000 -512.000000 80.000000
-550.000000 -512.000000 80.000000
-552.000000 -512.000000 80.000000
-554.000000 -512.000000 80.000000
-556.000000 -512.000000 80.000000
-558.000000 -512.000000 80.000000
-560.000000 -512.000000 80.000000
-562.000000 -512.000000 80.000000
-564.000000 -512.000000 80.000000
-566.000000 -512.000000 80.000000
-568.000000 -512.000000 80.000000
-570.000000 -512.000000 80.000000
-572.000000 -512.000000 80.000000
-574.000000 -512.000000 80.000000
-576.000000 -512.000000 80.000000
-578.000000 -512.000000 80.000000
-580.000000 -512.000000 80.000000
-582.000000 -512.000000 80.000000
-584.000000 -512.000000 80.000000
-586.000000 -512.000000 80.000000
-588.000000 -512.000000 80.000000
-590.000000 -512.000000 80.000000
-592.000000 -512.000000 80.000000
-594.000000 -512.000000 80.000000
-596.000000 -512.000000 80.000000
-598.000000 -512.000000 80.000000
-600.000000 -512.000000 80.000000
-604.000000 -512.000000 80.000000
-604.000000 -512.000000 80.000000
-604.000000 -513.680079 78.914949
-604.000000 -515.360158 77.829898
-604.000000 -517.040236 76.744847
-604.000000 -518.720315 75.659797
-604.000000 -520.400394 74.574746
-604.000000 -522.080473 73.489695
-604.000000 -523.760551 72.404644
-604.000000 -525.440630 71.319593
-604.000000 -527.120709 70.234542
-604.000000 -528.800788 69.149491
-604.000000 -530.480866 68.064441
-604.000000 -532.160945 66.979390
-604.000000 -533.841024 65.894339
-604.000000 -535.521103 64.809288
-604.000000 -537.201181 63.724237
-604.000000 -538.881260 62.639186
-604.000000 -540.561339 61.554135
-604.000000 -542.241418 60.469084
-604.000000 -543.921496 59.384034
-604.000000 -545.601575 58.298983
-604.000000 -547.281654 57.213932
-604.000000 -548.961733 56.128881
-604.000000 -550.641811 55.043830
-604.000000 -552.321890 53.958779
-604.000000 -554.001969 52.873728
-604.000000 -555.682048 51.788678
-604.000000 -557.362126 50.703627
-604.000000 -559.042205 49.618576
-604.000000 -560.722284 48.533525
-604.000000 -562.402363 47.448474
-604.000000 -564.082441 46.363423
-604.000000 -565.762520 45.278372
-604.000000 -567.442599 44.193322
-604.000000 -569.122678 43.108271
-604.000000 -570.802756 42.023220
-604.000000 -572.482835 40.938169
-604.000000 -574.162914 39.853118
-604.000000 -575.842993 38.768067
-604.000000 -577.523071 37.683016
-604.000000 -579.203150 36.597965
-604.000000 -580.883229 35.512915
-604.000000 -582.563308 34.427864
-604.000000 -584.243386 33.342813
-604.000000 -585.923465 32.257762
-604.000000 -587.603544 31.172711
-604.000000 -589.283623 30.087660
-604.000000 -590.963702 29.002609
-604.000000 -592.643780 27.917559
-604.000000 -594.323859 26.832508
-604.000000 -596.003938 25.747457
-604.000000 -597.684017 24.662406
-604.000000 -599.364095 23.577355
-604.000000 -601.044174 22.492304
-604.000000 -602.724253 21.407253
-604.000000 -604.404332 20.322203
-604.000000 -606.084410 19.237152
-604.000000 -607.764489 18.152101
-604.000000 -609.444568 17.067050
-604.000000 -611.124647 15.981999
-604.000000 -612.804725 14.896948
-604.000000 -614.484804 13.811897
-604.000000 -616.164883 12.726846
-604.000000 -617.844962 11.641796
-604.000000 -619.525040 10.556745
-604.000000 -621.205119 9.471694
-604.000000 -622.885198 8.386643
-604.000000 -624.565277 7.301592
-604.000000 -626.245355 6.216541
-604.000000 -627.925434 5.131490
-604.000000 -629.605513 4.046440
-604.000000 -631.285592 2.961389
-604.000000 -632.965670 1.876338
-604.000000 -634.645749 0.791287
-604.000000 -636.325828 -0.293764
-604.000000 -638.005907 -1.378815
-604.000000 -639.685985 -2.463866
-604.000000 -641.366064 -3.548916
-604.000000 -643.046143 -4.633967
-604.000000 -644.726222 -5.719018
-604.000000 -646.406300 -6.804069
-604.000000 -648.086379 -7.889120
-604.000000 -649.766458 -8.974171
-604.000000 -651.446537 -10.059222
-604.000000 -653.126615 -11.144272
-604.000000 -654.806694 -12.229323
-604.000000 -656.486773 -13.314374
-604.000000 -658.166852 -14.399425
-604.000000 -659.846930 -15.484476
-604.000000 -661.527009 -16.569527
-604.000000 -663.207088 -17.654578
-604.000000 -664.887167 -18.739629
-604.000000 -666.567246 -19.824679
-604.000000 -668.247324 -20.909730
-604.000000 -669.927403 -21.994781
-604.000000 -671.607482 -23.079832
-604.000000 -673.287561 -24.164883
-604.000000 -674.967639 -25.249934
-604.000000 -676.647718 -26.334985
-604.000000 -678.327797 -27.420035
-604.000000 -680.007876 -28.505086
-604.000000 -681.687954 -29.590137
-604.000000 -683.368033 -30.675188
-604.000000 -685.048112 -31.760239
-604.000000 -686.728191 -32.845290
-604.000000 -688.408269 -33.930341
-604.000000 -690.088348 -35.015391
-604.000000 -691.768427 -36.100442
-604.000000 -693.448506 -37.185493
-604.000000 -695.128584 -38.270544
-604.000000 -696.808663 -39.355595
-604.000000 -698.488742 -40.440646
-604.000000 -700.168821 -41.525697
-604.000000 -701.848899 -42.610748
-604.000000 -704.000000 -44.000000
-604.000000 -704.000000 -44.000000
-604.000000 -705.998559 -43.924105
-604.000000 -707.997119 -43.848211
-604.000000 -709.995678 -43.772316
-604.000000 -711.994238 -43.696421
-604.000000 -713.992797 -43.620527
-604.000000 -715.991357 -43.544632
-604.000000 -717.989916 -43.468737
-604.000000 -719.988476 -43.392843
-604.000000 -721.987035 -43.316948
-604.000000 -723.985595 -43.241053
-604.000000 -725.984154 -43.165159
-604.000000 -727.982714 -43.089264
-604.000000 -729.981273 -43.013369
-604.000000 -731.979833 -42.937475
-604.000000 -733.978392 -42.861580
-604.000000 -735.976952 -42.785685
-604.000000 -737.975511 -42.709791
-604.000000 -739.974071 -42.633896
-604.000000 -741.972630 -42.558001
-604.000000 -743.971190 -42.482107
-604.000000 -745.969749 -42.406212
-604.000000 -747.968309 -42.330317
-604.000000 -749.966868 -42.254423
-604.000000 -751.965428 -42.178528
-604.000000 -753.963987 -42.102633
-604.000000 -755.962547 -42.026739
-604.000000 -757.961106 -41.950844
-604.000000 -759.959665 -41.874949
-604.000000 -761.958225 -41.799055
-604.000000 -763.956784 -41.723160
-604.000000 -765.955344 -41.647265
-604.000000 -767.953903 -41.571371
-604.000000 -769.952463 -41.495476
-604.000000 -771.951022 -41.419581
-604.000000 -773.949582 -41.343687
-604.000000 -775.948141 -41.267792
-604.000000 -777.946701 -41.191897
-604.000000 -779.945260 -41.116003
-604.000000 -781.943820 -41.040108
-604.000000 -783.942379 -40.964213
-604.000000 -785.940939 -40.888319
-604.000000 -787.939498 -40.812424
-604.000000 -789.938058 -40.736529
-604.000000 -791.936617 -40.660635
-604.000000 -793.935177 -40.584740
-604.000000 -795.933736 -40.508845
-604.000000 -797.932296 -40.432951
-604.000000 -799.930855 -40.357056
-604.000000 -801.929415 -40.281161
-604.000000 -803.927974 -40.205267
-604.000000 -805.926534 -40.129372
-604.000000 -807.925093 -40.053477
-604.000000 -809.923653 -39.977583
-604.000000 -811.922212 -39.901688
-604.000000 -813.920771 -39.825793
-604.000000 -815.919331 -39.749899
-604.000000 -817.917890 -39.674004
-604.000000 -819.916450 -39.598109
-604.000000 -821.915009 -39.522215
-604.000000 -823.913569 -39.446320
-604.000000 -825.912128 -39.370426
-604.000000 -827.910688 -39.294531
-604.000000 -829.909247 -39.218636
-604.000000 -831.907807 -39.142742
-604.000000 -833.906366 -39.066847
-604.000000 -835.904926 -38.990952
-604.000000 -837.903485 -38.915058
-604.000000 -839.902045 -38.839163
-604.000000 -841.900604 -38.763268
-604.000000 -843.899164 -38.687374
-604.000000 -845.897723 -38.611479
-604.000000 -847.896283 -38.535584
-604.000000 -849.894842 -38.459690
-604.000000 -851.893402 -38.383795
-604.000000 -853.891961 -38.307900
-604.000000 -855.890521 -38.232006
-604.000000 -857.889080 -38.156111
-604.000000 -859.887640 -38.080216
-604.000000 -861.886199 -38.004322
-604.000000 -863.884758 -37.928427
-604.000000 -865.883318 -37.852532
-604.000000 -867.881877 -37.776638
-604.000000 -869.880437 -37.700743
-604.000000 -871.878996 -37.624848
-604.000000 -873.877556 -37.548954
-604.000000 -875.876115 -37.473059
-604.000000 -877.874675 -37.397164
-604.000000 -879.873234 -37.321270
-604.000000 -881.871794 -37.245375
-604.000000 -883.870353 -37.169480
-604.000000 -885.868913 -37.093586
-604.000000 -887.867472 -37.017691
-604.000000 -889.866032 -36.941796
-604.000000 -891.864591 -36.865902
-604.000000 -893.863151 -36.790007
-604.000000 -895.861710 -36.714112
-604.000000 -897.860270 -36.638218
-604.000000 -899.858829 -36.562323
-604.000000 -901.857389 -36.486428
-604.000000 -903.855948 -36.410534
-604.000000 -905.854508 -36.334639
-604.000000 -907.853067 -36.258744
-604.000000 -909.851627 -36.182850
-604.000000 -911.850186 -36.106955
-604.000000 -913.848746 -36.031060
-604.000000 -915.847305 -35.955166
-604.000000 -917.845864 -35.879271
-604.000000 -919.844424 -35.803376
-604.000000 -921.842983 -35.727482
-604.000000 -923.841543 -35.651587
-604.000000 -925.840102 -35.575692
-604.000000 -927.838662 -35.499798
-604.000000 -929.837221 -35.423903
-604.000000 -931.835781 -35.348008
-604.000000 -933.834340 -35.272114
-604.000000 -935.832900 -35.196219
-604.000000 -937.831459 -35.120324
-604.000000 -939.830019 -35.044430
-604.000000 -941.828578 -34.968535
-604.000000 -943.827138 -34.892640
-604.000000 -945.825697 -34.816746
-604.000000 -947.824257 -34.740851
-604.000000 -949.822816 -34.664956
-604.000000 -951.821376 -34.589062
-604.000000 -953.819935 -34.513167
-604.000000 -955.818495 -34.437272
-604.000000 -957.817054 -34.361378
-604.000000 -959.815614 -34.285483
-604.000000 -961.814173 -34.209588
-604.000000 -963.812733 -34.133694
-604.000000 -965.811292 -34.057799
-604.000000 -967.809852 -33.981904
-604.000000 -969.808411 -33.906010
-604.000000 -971.806970 -33.830115
-604.000000 -973.805530 -33.754220
-604.000000 -975.804089 -33.678326
-604.000000 -977.802649 -33.602431
-604.000000 -979.801208 -33.526536
-604.000000 -981.799768 -33.450642
-604.000000 -983.798327 -33.374747
-604.000000 -985.796887 -33.298852
-604.000000 -987.795446 -33.222958
-604.000000 -989.794006 -33.147063
-604.000000 -991.792565 -33.071168
-604.000000 -993.791125 -32.995274
-604.000000 -995.789684 -32.919379
-604.000000 -997.788244 -32.843484
-604.000000 -999.786803 -32.767590
-604.000000 -1001.785363 -32.691695
-604.000000 -1003.783922 -32.615800
-604.000000 -1005.782482 -32.539906
-604.000000 -1007.781041 -32.464011
-604.000000 -1009.779601 -32.388116
-604.000000 -1011.778160 -32.312222
-604.000000 -1013.776720 -32.236327
-604.000000 -1015.775279 -32.160432
-604.000000 -1017.773839 -32.084538
-604.000000 -1020.000000 -32.000000
-604.000000 -1020.000000 -32.000000
-602.302356 -1019.500693 -31.067960
-600.604712 -1019.001386 -30.135921
-598.907069 -1018.502079 -29.203881
-597.209425 -1018.002772 -28.271841
-595.511781 -1017.503465 -27.339801
-593.814137 -1017.004158 -26.407762
-592.116493 -1016.504851 -25.475722
-590.418850 -1016.005544 -24.543682
-588.721206 -1015.506237 -23.611642
-587.023562 -1015.006930 -22.679603
-585.325918 -1014.507623 -21.747563
-583.628274 -1014.008316 -20.815523
-581.930631 -1013.509009 -19.883483
-580.232987 -1013.009702 -18.951444
-578.535343 -1012.510395 -18.019404
-576.837699 -1012.011088 -17.087364
-575.140055 -1011.511781 -16.155325
-573.442412 -1011.012474 -15.223285
-571.744768 -1010.513167 -14.291245
-570.047124 -1010.013860 -13.359205
-568.349480 -1009.514553 -12.427166
-566.651836 -1009.015246 -11.495126
-564.954193 -1008.515939 -10.563086
-563.256549 -1008.016632 -9.631046
-561.558905 -1007.517325 -8.699007
-559.861261 -1007.018018 -7.766967
-558.163617 -1006.518711 -6.834927
-556.465974 -1006.019404 -5.902888
-554.768330 -1005.520097 -4.970848
-553.070686 -1005.020790 -4.038808
-551.373042 -1004.521483 -3.106768
-549.675399 -1004.022176 -2.174729
-547.977755 -1003.522869 -1.242689
-546.280111 -1003.023562 -0.310649
-544.582467 -1002.524255 0.621391
-542.884823 -1002.024948 1.553430
-541.187180 -1001.525641 2.485470
-539.489536 -1001.026334 3.417510
-537.791892 -1000.527027 4.349550
-536.094248 -1000.027720 5.281589
-534.396604 -999.528413 6.213629
-532.698961 -999.029106 7.145669
-531.001317 -998.529799 8.077708
-529.303673 -998.030492 9.009748
-527.606029 -997.531185 9.941788
-525.908385 -997.031878 10.873828
-524.210742 -996.532571 11.805867
-522.513098 -996.033264 12.737907
-520.815454 -995.533957 13.669947
-519.117810 -995.034650 14.601987
-517.420166 -994.535343 15.534026
-515.722523 -994.036036 16.466066
-514.024879 -993.536729 17.398106
-512.327235 -993.037422 18.330145
-510.629591 -992.538115 19.262185
-508.931947 -992.038808 20.194225
-507.234304 -991.539501 21.126265
-505.536660 -991.040194 22.058304
-503.839016 -990.540887 22.990344
-502.141372 -990.041580 23.922384
-500.443728 -989.542273 24.854424
-498.746085 -989.042966 25.786463
-497.048441 -988.543659 26.718503
-495.350797 -988.044352 27.650543
-493.653153 -987.545045 28.582583
-491.955509 -987.045738 29.514622
-490.257866 -986.546431 30.446662
-488.560222 -986.047124 31.378702
-486.862578 -985.547817 32.310741
-485.164934 -985.048510 33.242781
-483.467290 -984.549203 34.174821
-481.769647 -984.049896 35.106861
-480.072003 -983.550589 36.038900
-478.374359 -983.051282 36.970940
-476.676715 -982.551975 37.902980
-474.979071 -982.052668 38.835020
-473.281428 -981.553361 39.767059
-471.583784 -981.054054 40.699099
-469.886140 -980.554747 41.631139
-468.188496 -980.055440 42.563179
-466.490852 -979.556133 43.495218
-464.793209 -979.056826 44.427258
-463.095565 -978.557519 45.359298
-461.397921 -978.058212 46.291337
-459.700277 -977.558905 47.223377
-458.002634 -977.059598 48.155417
-456.304990 -976.560291 49.087457
-454.607346 -976.060984 50.019496
-452.909702 -975.561677 50.951536
