-718.331034 1851.779311 56.704701
-719.594437 1850.937042 58.006390
-720.857841 1850.094773 59.308079
-722.121245 1849.252503 60.609767
-723.384649 1848.410234 61.911456
-724.648052 1847.567965 63.213145
-725.911456 1846.725696 64.514834
-727.174860 1845.883427 65.816522
-728.438264 1845.041158 67.118211
-729.701668 1844.198888 68.419900
-730.965071 1843.356619 69.721589
-732.228475 1842.514350 71.023277
-733.491879 1841.672081 72.324966
-734.755283 1840.829812 73.626655
-736.018686 1839.987542 74.928344
-737.282090 1839.145273 76.230032
-738.545494 1838.303004 77.531721
-739.808898 1837.460735 78.833410
-741.072301 1836.618466 80.135098
-742.335705 1835.776197 81.436787
-743.599109 1834.933927 82.738476
-744.862513 1834.091658 84.040165
-746.125916 1833.249389 85.341853
-747.389320 1832.407120 86.643542
-748.652724 1831.564851 87.945231
-749.916128 1830.722581 89.246920
-751.179532 1829.880312 90.548608
-752.442935 1829.038043 91.850297
-753.706339 1828.195774 93.151986
-754.969743 1827.353505 94.453674
-756.233147 1826.511236 95.755363
-757.496550 1825.668966 97.057052
-758.759954 1824.826697 98.358741
-760.023358 1823.984428 99.660429
-761.286762 1823.142159 100.962118
-762.550165 1822.299890 102.263807
-763.813569 1821.457621 103.565496
-765.076973 1820.615351 104.867184
-766.340377 1819.773082 106.168873
-767.603781 1818.930813 107.470562
-768.867184 1818.088544 108.772250
-770.130588 1817.246275 110.073939
-772.000000 1816.000000 112.000000
-772.000000 1816.000000 112.000000
-772.000000 1814.274604 113.011439
-772.000000 1812.549208 114.022878
-772.000000 1810.823812 115.034317
-772.000000 1809.098416 116.045756
-772.000000 1807.373020 117.057195
-772.000000 1805.647624 118.068634
-772.000000 1803.922228 119.080073
-772.000000 1802.196832 120.091512
-772.000000 1800.471437 121.102951
-772.000000 1798.746041 122.114390
-772.000000 1797.020645 123.125829
-772.000000 1795.295249 124.137268
-772.000000 1793.569853 125.148707
-772.000000 1791.844457 126.160146
-772.000000 1790.119061 127.171585
-772.000000 1788.393665 128.183024
-772.000000 1786.668269 129.194463
-772.000000 1784.942873 130.205902
-772.000000 1783.217477 131.217341
-772.000000 1781.492081 132.228780
-772.000000 1779.766685 133.240219
-772.000000 1778.041289 134.251658
-772.000000 1776.315893 135.263097
-772.000000 1774.590497 136.274536
-772.000000 1772.865101 137.285975
-772.000000 1771.139706 138.297414
-772.000000 1769.414310 139.308853
-772.000000 1767.688914 140.320292
-772.000000 1765.963518 141.331731
-772.000000 1764.238122 142.343170
-772.000000 1762.512726 143.354609
-772.000000 1760.787330 144.366048
-772.000000 1759.061934 145.377487
-772.000000 1757.336538 146.388926
-772.000000 1755.611142 147.400365
-772.000000 1753.885746 148.411804
-772.000000 1752.160350 149.423243
-772.000000 1750.434954 150.434682
-772.000000 1748.709558 151.446121
-772.000000 1746.984162 152.457560
-772.000000 1745.258766 153.468999
-772.000000 1743.533371 154.480438
-772.000000 1741.807975 155.491877
-772.000000 1740.082579 156.503316
-772.000000 1738.357183 157.514755
-772.000000 1736.631787 158.526194
-772.000000 1734.906391 159.537633
-772.000000 1733.180995 160.549072
-772.000000 1731.455599 161.560511
-772.000000 1729.730203 162.571950
-772.000000 1728.004807 163.583389
-772.000000 1726.279411 164.594828
-772.000000 1724.554015 165.606267
-772.000000 1722.828619 166.617706
-772.000000 1721.103223 167.629145
-772.000000 1719.377827 168.640584
-772.000000 1717.652431 169.652023
-772.000000 1715.927035 170.663462
-772.000000 1714.201640 171.674901
-772.000000 1712.476244 172.686340
-772.000000 1710.750848 173.697779
-772.000000 1709.025452 174.709218
-772.000000 1707.300056 175.720657
-772.000000 1705.574660 176.732096
-772.000000 1703.849264 177.743535
-772.000000 1702.123868 178.754974
-772.000000 1700.398472 179.766413
-772.000000 1698.673076 180.777852
-772.000000 1696.947680 181.789291
-772.000000 1695.222284 182.800730
-772.000000 1693.496888 183.812169
-772.000000 1691.771492 184.823608
-772.000000 1690.046096 185.835047
-772.000000 1688.320700 186.846486
-772.000000 1686.595304 187.857925
-772.000000 1684.869909 188.869364
-772.000000 1683.144513 189.880803
-772.000000 1681.419117 190.892242
-772.000000 1679.693721 191.903681
-772.000000 1677.968325 192.915120
-772.000000 1676.242929 193.926559
-772.000000 1674.517533 194.937998
-772.000000 1672.792137 195.949437
-772.000000 1671.066741 196.960876
-772.000000 1669.341345 197.972315
-772.000000 1667.615949 198.983754
-772.000000 1665.890553 199.995193
-772.000000 1664.165157 201.006632
-772.000000 1662.439761 202.018071
-772.000000 1660.714365 203.029510
-772.000000 1658.988969 204.040949
-772.000000 1657.263574 205.052388
-772.000000 1655.538178 206.063827
-772.000000 1653.812782 207.075266
-772.000000 1652.087386 208.086705
-772.000000 1650.361990 209.098144
-772.000000 1648.636594 210.109583
-772.000000 1646.911198 211.121022
-772.000000 1645.185802 212.132461
-772.000000 1643.460406 213.143900
-772.000000 1641.735010 214.155339
-772.000000 1640.009614 215.166778
-772.000000 1638.284218 216.178217
-772.000000 1636.558822 217.189656
-772.000000 1634.833426 218.201095
-772.000000 1633.108030 219.212534
-772.000000 1631.382634 220.223973
-772.000000 1629.657238 221.235412
-772.000000 1627.931843 222.246851
-772.000000 1626.206447 223.258290
-772.000000 1624.481051 224.269729
-772.000000 1622.755655 225.281168
-772.000000 1621.030259 226.292607
-772.000000 1619.304863 227.304046
-772.000000 1617.579467 228.315485
-772.000000 1615.854071 229.326924
-772.000000 1614.128675 230.338363
-772.000000 1612.403279 231.349802
-772.000000 1610.677883 232.361241
-772.000000 1608.952487 233.372680
-772.000000 1607.227091 234.384119
-772.000000 1605.501695 235.395558
-772.000000 1603.776299 236.406997
-772.000000 1602.050903 237.418436
-772.000000 1600.325507 238.429875
-772.000000 1598.600112 239.441314
-772.000000 1596.874716 240.452753
-772.000000 1595.149320 241.464192
-772.000000 1593.423924 242.475631
-772.000000 1591.698528 243.487070
-772.000000 1589.973132 244.498509
-772.000000 1588.247736 245.509948
-772.000000 1586.522340 246.521387
-772.000000 1584.000000 248.000000
-772.000000 1584.000000 248.000000
-770.007155 1583.942236 248.158850
-768.014311 1583.884473 248.317700
-766.021466 1583.826709 248.476550
-764.028621 1583.768946 248.635400
-762.035776 1583.711182 248.794250
-760.042932 1583.653418 248.953100
-758.050087 1583.595655 249.111950
-756.057242 1583.537891 249.270800
-754.064398 1583.480127 249.429649
-752.071553 1583.422364 249.588499
-750.078708 1583.364600 249.747349
-748.085863 1583.306837 249.906199
-746.093019 1583.249073 250.065049
-744.100174 1583.191309 250.223899
-742.107329 1583.133546 250.382749
-740.114485 1583.075782 250.541599
-738.121640 1583.018019 250.700449
-736.128795 1582.960255 250.859299
-734.135950 1582.902491 251.018149
-732.143106 1582.844728 251.176999
-730.150261 1582.786964 251.335849
-728.157416 1582.729200 251.494699
-726.164572 1582.671437 251.653549
-724.171727 1582.613673 251.812399
-722.178882 1582.555910 251.971249
-720.186037 1582.498146 252.130098
-718.193193 1582.440382 252.288948
-716.200348 1582.382619 252.447798
-714.207503 1582.324855 252.606648
-712.214659 1582.267092 252.765498
-710.221814 1582.209328 252.924348
-708.228969 1582.151564 253.083198
-706.236124 1582.093801 253.242048
-704.243280 1582.036037 253.400898
-702.250435 1581.978273 253.559748
-700.257590 1581.920510 253.718598
-698.264746 1581.862746 253.877448
-696.271901 1581.804983 254.036298
-694.279056 1581.747219 254.195148
-692.286211 1581.689455 254.353998
-690.293367 1581.631692 254.512848
-688.300522 1581.573928 254.671698
-686.307677 1581.516165 254.830547
-684.314833 1581.458401 254.989397
-682.321988 1581.400637 255.148247
-680.329143 1581.342874 255.307097
-678.336298 1581.285110 255.465947
-676.343454 1581.227346 255.624797
-674.350609 1581.169583 255.783647
-672.357764 1581.111819 255.942497
-670.364919 1581.054056 256.101347
-668.372075 1580.996292 256.260197
-666.379230 1580.938528 256.419047
-664.386385 1580.880765 256.577897
-662.393541 1580.823001 256.736747
-660.400696 1580.765238 256.895597
-658.407851 1580.707474 257.054447
-656.415006 1580.649710 257.213297
-654.422162 1580.591947 257.372147
-652.429317 1580.534183 257.530996
-650.436472 1580.476419 257.689846
-648.443628 1580.418656 257.848696
-646.450783 1580.360892 258.007546
-644.457938 1580.303129 258.166396
-642.465093 1580.245365 258.325246
-640.472249 1580.187601 258.484096
-638.479404 1580.129838 258.642946
-636.486559 1580.072074 258.801796
-634.493715 1580.014311 258.960646
-632.500870 1579.956547 259.119496
-630.508025 1579.898783 259.278346
-628.515180 1579.841020 259.437196
-626.522336 1579.783256 259.596046
-624.529491 1579.725492 259.754896
-622.536646 1579.667729 259.913746
-620.543802 1579.609965 260.072596
-618.550957 1579.552202 260.231445
-616.558112 1579.494438 260.390295
-614.565267 1579.436674 260.549145
-612.572423 1579.378911 260.707995
-610.579578 1579.321147 260.866845
-608.586733 1579.263384 261.025695
-606.593889 1579.205620 261.184545
-604.601044 1579.147856 261.343395
-602.608199 1579.090093 261.502245
-600.615354 1579.032329 261.661095
-598.622510 1578.974565 261.819945
-596.629665 1578.916802 261.978795
-594.636820 1578.859038 262.137645
-592.643976 1578.801275 262.296495
-590.651131 1578.743511 262.455345
-588.658286 1578.685747 262.614195
-586.665441 1578.627984 262.773045
-584.672597 1578.570220 262.931894
-582.679752 1578.512457 263.090744
-580.686907 1578.454693 263.249594
-578.694063 1578.396929 263.408444
-576.701218 1578.339166 263.567294
-574.708373 1578.281402 263.726144
-572.715528 1578.223639 263.884994
-570.722684 1578.165875 264.043844
-568.729839 1578.108111 264.202694
-566.736994 1578.050348 264.361544
-564.744150 1577.992584 264.520394
-562.751305 1577.934820 264.679244
-560.758460 1577.877057 264.838094
-558.765615 1577.819293 264.996944
-556.772771 1577.761530 265.155794
-554.779926 1577.703766 265.314644
-552.787081 1577.646002 265.473494
-550.794237 1577.588239 265.632343
-548.801392 1577.530475 265.791193
-546.808547 1577.472712 265.950043
-544.815702 1577.414948 266.108893
-542.822858 1577.357184 266.267743
-540.830013 1577.299421 266.426593
-538.837168 1577.241657 266.585443
-536.844324 1577.183893 266.744293
-534.851479 1577.126130 266.903143
-532.858634 1577.068366 267.061993
-530.865789 1577.010603 267.220843
-528.872945 1576.952839 267.379693
-526.880100 1576.895075 267.538543
-524.887255 1576.837312 267.697393
-522.894411 1576.779548 267.856243
-520.901566 1576.721785 268.015093
-518.908721 1576.664021 268.173943
-516.915876 1576.606257 268.332792
-514.923032 1576.548494 268.491642
-512.930187 1576.490730 268.650492
-510.937342 1576.432966 268.809342
-508.944498 1576.375203 268.968192
-506.951653 1576.317439 269.127042
-504.958808 1576.259676 269.285892
-502.965963 1576.201912 269.444742
-500.973119 1576.144148 269.603592
-498.980274 1576.086385 269.762442
-496.000000 1576.000000 270.000000
-496.000000 1576.000000 270.000000
-495.859993 1576.000000 271.995094
-495.719987 1576.000000 273.990187
-495.579980 1576.000000 275.985281
-495.439974 1576.000000 277.980374
-495.299967 1576.000000 279.975468
-495.159961 1576.000000 281.970561
-495.019954 1576.000000 283.965655
-494.879947 1576.000000 285.960748
-494.739941 1576.000000 287.955842
-494.599934 1576.000000 289.950935
-494.459928 1576.000000 291.946029
-494.319921 1576.000000 293.941122
-494.179915 1576.000000 295.936216
-494.039908 1576.000000 297.931309
-493.899902 1576.000000 299.926403
-493.759895 1576.000000 301.921496
-493.619888 1576.000000 303.916590
-493.479882 1576.000000 305.911683
-493.339875 1576.000000 307.906777
-493.199869 1576.000000 309.901870
-493.059862 1576.000000 311.896964
-492.919856 1576.000000 313.892057
-492.779849 1576.000000 315.887151
-492.639842 1576.000000 317.882245
-492.499836 1576.000000 319.877338
-492.359829 1576.000000 321.872432
-492.219823 1576.000000 323.867525
-492.079816 1576.000000 325.862619
-491.939810 1576.000000 327.857712
-491.799803 1576.000000 329.852806
-491.659797 1576.000000 331.847899
-491.519790 1576.000000 333.842993
-491.379783 1576.000000 335.838086
-491.239777 1576.000000 337.833180
-491.099770 1576.000000 339.828273
-490.959764 1576.000000 341.823367
-490.819757 1576.000000 343.818460
-490.679751 1576.000000 345.813554
-490.539744 1576.000000 347.808647
-490.399737 1576.000000 349.803741
-490.259731 1576.000000 351.798834
-490.119724 1576.000000 353.793928
-489.979718 1576.000000 355.789021
-489.839711 1576.000000 357.784115
-489.699705 1576.000000 359.779208
-489.559698 1576.000000 361.774302
-489.419692 1576.000000 363.769396
-489.279685 1576.000000 365.764489
-489.139678 1576.000000 367.759583
-488.999672 1576.000000 369.754676
-488.859665 1576.000000 371.749770
-488.719659 1576.000000 373.744863
-488.579652 1576.000000 375.739957
-488.439646 1576.000000 377.735050
-488.299639 1576.000000 379.730144
-488.159632 1576.000000 381.725237
-488.000000 1576.000000 384.000000
-488.000000 1576.000000 384.000000
-489.280369 1574.463557 384.000000
-490.560738 1572.927115 384.000000
-491.841106 1571.390672 384.000000
-493.121475 1569.854230 384.000000
-494.401844 1568.317787 384.000000
-495.682213 1566.781345 384.000000
-496.962582 1565.244902 384.000000
-498.242950 1563.708460 384.000000
-499.523319 1562.172017 384.000000
-500.803688 1560.635574 384.000000
-502.084057 1559.099132 384.000000
-503.364426 1557.562689 384.000000
-504.644794 1556.026247 384.000000
-505.925163 1554.489804 384.000000
-507.205532 1552.953362 384.000000
-508.485901 1551.416919 384.000000
-509.766270 1549.880476 384.000000
-511.046638 1548.344034 384.000000
-512.327007 1546.807591 384.000000
-513.607376 1545.271149 384.000000
-514.887745 1543.734706 384.000000
-516.168114 1542.198264 384.000000
-517.448482 1540.661821 384.000000
-518.728851 1539.125379 384.000000
-520.009220 1537.588936 384.000000
-521.289589 1536.052493 384.000000
-522.569958 1534.516051 384.000000
-523.850326 1532.979608 384.000000
-525.130695 1531.443166 384.000000
-526.411064 1529.906723 384.000000
-527.691433 1528.370281 384.000000
-528.971802 1526.833838 384.000000
-530.252170 1525.297396 384.000000
-531.532539 1523.760953 384.000000
-532.812908 1522.224510 384.000000
-534.093277 1520.688068 384.000000
-535.373646 1519.151625 384.000000
-536.654014 1517.615183 384.000000
-537.934383 1516.078740 384.000000
-539.214752 1514.542298 384.000000
-540.495121 1513.005855 384.000000
-541.775490 1511.469413 384.000000
-543.055858 1509.932970 384.000000
-544.336227 1508.396527 384.000000
-545.616596 1506.860085 384.000000
-546.896965 1505.323642 384.000000
-548.177334 1503.787200 384.000000
-549.457702 1502.250757 384.000000
-550.738071 1500.714315 384.000000
-552.018440 1499.177872 384.000000
-553.298809 1497.641429 384.000000
-554.579178 1496.104987 384.000000
-555.859546 1494.568544 384.000000
-557.139915 1493.032102 384.000000
-558.420284 1491.495659 384.000000
-559.700653 1489.959217 384.000000
-560.981022 1488.422774 384.000000
-562.261390 1486.886332 384.000000
-563.541759 1485.349889 384.000000
-564.822128 1483.813446 384.000000
-566.102497 1482.277004 384.000000
-567.382866 1480.740561 384.000000
-568.663234 1479.204119 384.000000
-569.943603 1477.667676 384.000000
-571.223972 1476.131234 384.000000
-572.504341 1474.594791 384.000000
-573.784710 1473.058349 384.000000
-575.065078 1471.521906 384.000000
-576.345447 1469.985463 384.000000
-577.625816 1468.449021 384.000000
-578.906185 1466.912578 384.000000
-580.186554 1465.376136 384.000000
-581.466922 1463.839693 384.000000
-582.747291 1462.303251 384.000000
-584.027660 1460.766808 384.000000
-585.308029 1459.230366 384.000000
-586.588398 1457.693923 384.000000
-587.868766 1456.157480 384.000000
-589.149135 1454.621038 384.000000
-590.429504 1453.084595 384.000000
-591.709873 1451.548153 384.000000
-592.990242 1450.011710 384.000000
-594.270610 1448.475268 384.000000
-595.550979 1446.938825 384.000000
-596.831348 1445.402382 384.000000
-598.111717 1443.865940 384.000000
-599.392086 1442.329497 384.000000
-600.672454 1440.793055 384.000000
-601.952823 1439.256612 384.000000
-603.233192 1437.720170 384.000000
-604.513561 1436.183727 384.000000
-605.793930 1434.647285 384.000000
-607.074298 1433.110842 384.000000
-608.354667 1431.574399 384.000000
-609.635036 1430.037957 384.000000
-610.915405 1428.501514 384.000000
-612.195774 1426.965072 384.000000
-613.476142 1425.428629 384.000000
-614.756511 1423.892187 384.000000
-616.036880 1422.355744 384.000000
-617.317249 1420.819302 384.000000
-618.597618 1419.282859 384.000000
-619.877986 1417.746416 384.000000
-621.158355 1416.209974 384.000000
-622.438724 1414.673531 384.000000
-623.719093 1413.137089 384.000000
-624.999462 1411.600646 384.000000
-626.279830 1410.064204 384.000000
-627.560199 1408.527761 384.000000
-628.840568 1406.991318 384.000000
-630.120937 1405.454876 384.000000
-631.401306 1403.918433 384.000000
-632.681674 1402.381991 384.000000
-633.962043 1400.845548 384.000000
-635.242412 1399.309106 384.000000
-636.522781 1397.772663 384.000000
-637.803150 1396.236221 384.000000
-639.083518 1394.699778 384.000000
-640.363887 1393.163335 384.000000
-641.644256 1391.626893 384.000000
-642.924625 1390.090450 384.000000
-644.204994 1388.554008 384.000000
-645.485362 1387.017565 384.000000
-646.765731 1385.481123 384.000000
-648.046100 1383.944680 384.000000
-649.326469 1382.408238 384.000000
-650.606838 1380.871795 384.000000
-651.887206 1379.335352 384.000000
-653.167575 1377.798910 384.000000
-654.447944 1376.262467 384.000000
-655.728313 1374.726025 384.000000
-657.008682 1373.189582 384.000000
-658.289050 1371.653140 384.000000
-659.569419 1370.116697 384.000000
-660.849788 1368.580255 384.000000
-662.130157 1367.043812 384.000000
-663.410526 1365.507369 384.000000
-664.690894 1363.970927 384.000000
-665.971263 1362.434484 384.000000
-667.251632 1360.898042 384.000000
-668.532001 1359.361599 384.000000
-669.812370 1357.825157 384.000000
-671.092738 1356.288714 384.000000
-672.373107 1354.752271 384.000000
-673.653476 1353.215829 384.000000
-674.933845 1351.679386 384.000000
-676.214214 1350.142944 384.000000
-677.494582 1348.606501 384.000000
-678.774951 1347.070059 384.000000
-680.055320 1345.533616 384.000000
-681.335689 1343.997174 384.000000
-682.616057 1342.460731 384.000000
-683.896426 1340.924288 384.000000
-685.176795 1339.387846 384.000000
-686.457164 1337.851403 384.000000
-687.737533 1336.314961 384.000000
-689.017901 1334.778518 384.000000
-690.298270 1333.242076 384.000000
-691.578639 1331.705633 384.000000
-692.859008 1330.169191 384.000000
-694.139377 1328.632748 384.000000
-695.419745 1327.096305 384.000000
-696.700114 1325.559863 384.000000
-697.980483 1324.023420 384.000000
-699.260852 1322.486978 384.000000
-700.541221 1320.950535 384.000000
-701.821589 1319.414093 384.000000
-703.101958 1317.877650 384.000000
-704.382327 1316.341207 384.000000
-705.662696 1314.804765 384.000000
-706.943065 1313.268322 384.000000
-708.223433 1311.731880 384.000000
-709.503802 1310.195437 384.000000
-710.784171 1308.658995 384.000000
-712.064540 1307.122552 384.000000
-713.344909 1305.586110 384.000000
-714.625277 1304.049667 384.000000
-715.905646 1302.513224 384.000000
-717.186015 1300.976782 384.000000
-718.466384 1299.440339 384.000000
-719.746753 1297.903897 384.000000
-721.027121 1296.367454 384.000000
-722.307490 1294.831012 384.000000
-723.587859 1293.294569 384.000000
-724.868228 1291.758127 384.000000
-726.148597 1290.221684 384.000000
-727.428965 1288.685241 384.000000
-728.709334 1287.148799 384.000000
-729.989703 1285.612356 384.000000
-731.270072 1284.075914 384.000000
-732.550441 1282.539471 384.000000
-733.830809 1281.003029 384.000000
-735.111178 1279.466586 384.000000
-736.391547 1277.930144 384.000000
-737.671916 1276.393701 384.000000
-738.952285 1274.857258 384.000000
-740.232653 1273.320816 384.000000
-741.513022 1271.784373 384.000000
-742.793391 1270.247931 384.000000
-744.073760 1268.711488 384.000000
-745.354129 1267.175046 384.000000
-746.634497 1265.638603 384.000000
-748.000000 1264.000000 384.000000
-748.000000 1264.000000 384.000000
-748.000000 1265.600000 382.800000
-748.000000 1267.200000 381.600000
-748.000000 1268.800000 380.400000
-748.000000 1270.400000 379.200000
-748.000000 1272.000000 378.000000
-748.000000 1273.600000 376.800000
-748.000000 1275.200000 375.600000
-748.000000 1276.800000 374.400000
-748.000000 1278.400000 373.200000
-748.000000 1280.000000 372.000000
-748.000000 1281.600000 370.800000
-748.000000 1283.200000 369.600000
-748.000000 1284.800000 368.400000
-748.000000 1286.400000 367.200000
-748.000000 1288.000000 366.000000
-748.000000 1289.600000 364.800000
-748.000000 1291.200000 363.600000
-748.000000 1292.800000 362.400000
-748.000000 1294.400000 361.200000
-748.000000 1296.000000 360.000000
-748.000000 1297.600000 358.800000
-748.000000 1299.200000 357.600000
-748.000000 1300.800000 356.400000
-748.000000 1302.400000 355.200000
-748.000000 1304.000000 354.000000
-748.000000 1305.600000 352.800000
-748.000000 1307.200000 351.600000
-748.000000 1308.800000 350.400000
-748.000000 1310.400000 349.200000
-748.000000 1312.000000 348.000000
-748.000000 1313.600000 346.800000
-748.000000 1315.200000 345.600000
-748.000000 1316.800000 344.400000
-748.000000 1318.400000 343.200000
-748.000000 1320.000000 342.000000
-748.000000 1321.600000 340.800000
-748.000000 1323.200000 339.600000
-748.000000 1324.800000 338.400000
-748.000000 1326.400000 337.200000
-748.000000 1328.000000 336.000000
-748.000000 1329.600000 334.800000
-748.000000 1331.200000 333.600000
-748.000000 1332.800000 332.400000
-748.000000 1334.400000 331.200000
-748.000000 1336.000000 330.000000
-748.000000 1337.600000 328.800000
-748.000000 1339.200000 327.600000
-748.000000 1340.800000 326.400000
-748.000000 1342.400000 325.200000
-748.000000 1344.000000 324.000000
-748.000000 1345.600000 322.800000
-748.000000 1347.200000 321.600000
-748.000000 1348.800000 320.400000
-748.000000 1350.400000 319.200000
-748.000000 1352.000000 318.000000
-748.000000 1353.600000 316.800000
-748.000000 1355.200000 315.600000
-748.000000 1356.800000 314.400000
-748.000000 1358.400000 313.200000
-748.000000 1360.000000 312.000000
-748.000000 1361.600000 310.800000
-748.000000 1363.200000 309.600000
-748.000000 1364.800000 308.400000
-748.000000 1366.400000 307.200000
-748.000000 1368.000000 306.000000
-748.000000 1369.600000 304.800000
-748.000000 1371.200000 303.600000
-748.000000 1372.800000 302.400000
-748.000000 1374.400000 301.200000
-748.000000 1376.000000 300.000000
-748.000000 1377.600000 298.800000
-748.000000 1379.200000 297.600000
-748.000000 1380.800000 296.400000
-748.000000 1382.400000 295.200000
-748.000000 1384.000000 294.000000
-748.000000 1385.600000 292.800000
-748.000000 1387.200000 291.600000
-748.000000 1388.800000 290.400000
-748.000000 1390.400000 289.200000
-748.000000 1392.000000 288.000000
-748.000000 1393.600000 286.800000
-748.000000 1395.200000 285.600000
-748.000000 1396.800000 284.400000
-748.000000 1398.400000 283.200000
-748.000000 1400.000000 282.000000
-748.000000 1401.600000 280.800000
-748.000000 1403.200000 279.600000
-748.000000 1404.800000 278.400000
-748.000000 1406.400000 277.200000
-748.000000 1408.000000 276.000000
-748.000000 1409.600000 274.800000
-748.000000 1411.200000 273.600000
-748.000000 1412.800000 272.400000
-748.000000 1414.400000 271.200000
-748.000000 1416.000000 270.000000
-748.000000 1417.600000 268.800000
-748.000000 1419.200000 267.600000
-748.000000 1420.800000 266.400000
-748.000000 1422.400000 265.200000
-748.000000 1424.000000 264.000000
-748.000000 1425.600000 262.800000
-748.000000 1427.200000 261.600000
-748.000000 1428.800000 260.400000
-748.000000 1430.400000 259.200000
-748.000000 1432.000000 258.000000
-748.000000 1433.600000 256.800000
-748.000000 1435.200000 255.600000
-748.000000 1436.800000 254.400000
-748.000000 1438.400000 253.200000
-748.000000 1440.000000 252.000000
-748.000000 1441.600000 250.800000
-748.000000 1443.200000 249.600000
-748.000000 1444.800000 248.400000
-748.000000 1446.400000 247.200000
-748.000000 1448.000000 246.000000
-748.000000 1449.600000 244.800000
-748.000000 1451.200000 243.600000
-748.000000 1452.800000 242.400000
-748.000000 1456.000000 240.000000
-748.000000 1456.000000 240.000000
-746.081770 1456.000000 240.566035
-744.163541 1456.000000 241.132070
-742.245311 1456.000000 241.698105
-740.327082 1456.000000 242.264140
-738.408852 1456.000000 242.830175
-736.490623 1456.000000 243.396210
-734.572393 1456.000000 243.962245
-732.654164 1456.000000 244.528279
-730.735934 1456.000000 245.094314
-728.817705 1456.000000 245.660349
-726.899475 1456.000000 246.226384
-724.981246 1456.000000 246.792419
-723.063016 1456.000000 247.358454
-721.144787 1456.000000 247.924489
-719.226557 1456.000000 248.490524
-717.308328 1456.000000 249.056559
-715.390098 1456.000000 249.622594
-713.471869 1456.000000 250.188629
-711.553639 1456.000000 250.754664
-709.635410 1456.000000 251.320699
-707.717180 1456.000000 251.886734
-705.798951 1456.000000 252.452769
-703.880721 1456.000000 253.018804
-701.962492 1456.000000 253.584838
-700.044262 1456.000000 254.150873
-698.126033 1456.000000 254.716908
-696.207803 1456.000000 255.282943
-694.289574 1456.000000 255.848978
-692.371344 1456.000000 256.415013
-690.453115 1456.000000 256.981048
-688.534885 1456.000000 257.547083
-686.616656 1456.000000 258.113118
-684.698426 1456.000000 258.679153
-682.780197 1456.000000 259.245188
-680.861967 1456.000000 259.811223
-678.943738 1456.000000 260.377258
-677.025508 1456.000000 260.943293
-675.107279 1456.000000 261.509328
-673.189049 1456.000000 262.075363
-671.270820 1456.000000 262.641397
-669.352590 1456.000000 263.207432
-667.434361 1456.000000 263.773467
-665.516131 1456.000000 264.339502
-663.597902 1456.000000 264.905537
-661.679672 1456.000000 265.471572
-659.761443 1456.000000 266.037607
-657.843213 1456.000000 266.603642
-655.924984 1456.000000 267.169677
-654.006754 1456.000000 267.735712
-652.088525 1456.000000 268.301747
-650.170295 1456.000000 268.867782
-648.252066 1456.000000 269.433817
-646.333836 1456.000000 269.999852
-644.415607 1456.000000 270.565887
-642.497377 1456.000000 271.131922
-640.579147 1456.000000 271.697956
-638.660918 1456.000000 272.263991
-636.742688 1456.000000 272.830026
-634.824459 1456.000000 273.396061
-632.906229 1456.000000 273.962096
-630.988000 1456.000000 274.528131
-629.069770 1456.000000 275.094166
-627.151541 1456.000000 275.660201
-625.233311 1456.000000 276.226236
-623.315082 1456.000000 276.792271
-621.396852 1456.000000 277.358306
-619.478623 1456.000000 277.924341
-617.560393 1456.000000 278.490376
-615.642164 1456.000000 279.056411
-613.723934 1456.000000 279.622446
-611.805705 1456.000000 280.188481
-609.887475 1456.000000 280.754515
-607.969246 1456.000000 281.320550
-606.051016 1456.000000 281.886585
-604.132787 1456.000000 282.452620
-602.214557 1456.000000 283.018655
-600.296328 1456.000000 283.584690
-598.378098 1456.000000 284.150725
-596.459869 1456.000000 284.716760
-594.541639 1456.000000 285.282795
-592.623410 1456.000000 285.848830
-590.705180 1456.000000 286.414865
-588.786951 1456.000000 286.980900
-586.868721 1456.000000 287.546935
-584.950492 1456.000000 288.112970
-583.032262 1456.000000 288.679005
-581.114033 1456.000000 289.245040
-579.195803 1456.000000 289.811074
-577.277574 1456.000000 290.377109
-575.359344 1456.000000 290.943144
-573.441115 1456.000000 291.509179
-571.522885 1456.000000 292.075214
-569.604656 1456.000000 292.641249
-567.686426 1456.000000 293.207284
-565.768197 1456.000000 293.773319
-563.849967 1456.000000 294.339354
-561.931738 1456.000000 294.905389
-560.013508 1456.000000 295.471424
-558.095279 1456.000000 296.037459
-556.177049 1456.000000 296.603494
-554.258820 1456.000000 297.169529
-552.340590 1456.000000 297.735564
-550.422361 1456.000000 298.301599
-548.504131 1456.000000 298.867633
-546.585902 1456.000000 299.433668
-544.667672 1456.000000 299.999703
-542.749443 1456.000000 300.565738
-540.831213 1456.000000 301.131773
-538.912983 1456.000000 301.697808
-536.994754 1456.000000 302.263843
-535.076524 1456.000000 302.829878
-533.158295 1456.000000 303.395913
-531.240065 1456.000000 303.961948
-529.321836 1456.000000 304.527983
-527.403606 1456.000000 305.094018
-525.485377 1456.000000 305.660053
-523.567147 1456.000000 306.226088
-521.648918 1456.000000 306.792123
-519.730688 1456.000000 307.358158
-517.812459 1456.000000 307.924192
-515.894229 1456.000000 308.490227
-513.976000 1456.000000 309.056262
-512.057770 1456.000000 309.622297
-510.139541 1456.000000 310.188332
-508.221311 1456.000000 310.754367
-506.303082 1456.000000 311.320402
-504.000000 1456.000000 312.000000
-504.000000 1456.000000 312.000000
-502.000000 1456.000000 312.000000
-500.000000 1456.000000 312.000000
-498.000000 1456.000000 312.000000
-496.000000 1456.000000 312.000000
-494.000000 1456.000000 312.000000
-492.000000 1456.000000 312.000000
-490.000000 1456.000000 312.000000
-488.000000 1456.000000 312.000000
-486.000000 1456.000000 312.000000
-484.000000 1456.000000 312.000000
-482.000000 1456.000000 312.000000
-480.000000 1456.000000 312.000000
-478.000000 1456.000000 312.000000
-476.000000 1456.000000 312.000000
-472.000000 1456.000000 312.000000
-472.000000 1456.000000 312.000000
-471.753817 1457.723281 311.015268
-471.507634 1459.446562 310.030536
-471.261451 1461.169843 309.045804
-471.015268 1462.893123 308.061072
-470.769085 1464.616404 307.076340
-470.522902 1466.339685 306.091608
-470.276719 1468.062966 305.106877
-470.030536 1469.786247 304.122145
-469.784353 1471.509528 303.137413
-469.538170 1473.232809 302.152681
-469.291987 1474.956090 301.167949
-469.045804 1476.679370 300.183217
-468.799621 1478.402651 299.198485
-468.553438 1480.125932 298.213753
-468.307255 1481.849213 297.229021
-468.061072 1483.572494 296.244289
-467.814889 1485.295775 295.259557
-467.568706 1487.019056 294.274825
-467.322523 1488.742337 293.290093
-467.076340 1490.465617 292.305361
-466.830157 1492.188898 291.320630
-466.583974 1493.912179 290.335898
-466.337791 1495.635460 289.351166
-466.091608 1497.358741 288.366434
-465.845425 1499.082022 287.381702
-465.599242 1500.805303 286.396970
-465.353059 1502.528584 285.412238
-465.106877 1504.251864 284.427506
-464.860694 1505.975145 283.442774
-464.614511 1507.698426 282.458042
-464.368328 1509.421707 281.473310
-464.000000 1512.000000 280.000000
-464.000000 1512.000000 280.000000
-462.000000 1512.000000 280.000000
-460.000000 1512.000000 280.000000
-458.000000 1512.000000 280.000000
-456.000000 1512.000000 280.000000
-454.000000 1512.000000 280.000000
-452.000000 1512.000000 280.000000
-450.000000 1512.000000 280.000000
-448.000000 1512.000000 280.000000
-446.000000 1512.000000 280.000000
-444.000000 1512.000000 280.000000
-442.000000 1512.000000 280.000000
-440.000000 1512.000000 280.000000
-438.000000 1512.000000 280.000000
-436.000000 1512.000000 280.000000
-434.000000 1512.000000 280.000000
-432.000000 1512.000000 280.000000
-430.000000 1512.000000 280.000000
-428.000000 1512.000000 280.000000
-426.000000 1512.000000 280.000000
-424.000000 1512.000000 280.000000
-422.000000 1512.000000 280.000000
-420.000000 1512.000000 280.000000
-418.000000 1512.000000 280.000000
-416.000000 1512.000000 280.000000
-414.000000 1512.000000 280.000000
-412.000000 1512.000000 280.000000
-410.000000 1512.000000 280.000000
-408.000000 1512.000000 280.000000
-406.000000 1512.000000 280.000000
-404.000000 1512.000000 280.000000
-402.000000 1512.000000 280.000000
-400.000000 1512.000000 280.000000
-398.000000 1512.000000 280.000000
-396.000000 1512.000000 280.000000
-394.000000 1512.000000 280.000000
-392.000000 1512.000000 280.000000
-390.000000 1512.000000 280.000000
-388.000000 1512.000000 280.000000
-386.000000 1512.000000 280.000000
-384.000000 1512.000000 280.000000
-382.000000 1512.000000 280.000000
-380.000000 1512.000000 280.000000
-378.000000 1512.000000 280.000000
-376.000000 1512.000000 280.000000
-374.000000 1512.000000 280.000000
-372.000000 1512.000000 280.000000
-370.000000 1512.000000 280.000000
-368.000000 1512.000000 280.000000
-366.000000 1512.000000 280.000000
-364.000000 1512.000000 280.000000
-362.000000 1512.000000 280.000000
-360.000000 1512.000000 280.000000
-358.000000 1512.000000 280.000000
-356.000000 1512.000000 280.000000
-354.000000 1512.000000 280.000000
-352.000000 1512.000000 280.000000
-350.000000 1512.000000 280.000000
-348.000000 1512.000000 280.000000
-346.000000 1512.000000 280.000000
-344.000000 1512.000000 280.000000
-342.000000 1512.000000 280.000000
-340.000000 1512.000000 280.000000
-338.000000 1512.000000 280.000000
-336.000000 1512.000000 280.000000
-334.000000 1512.000000 280.000000
-332.000000 1512.000000 280.000000
-330.000000 1512.000000 280.000000
-328.000000 1512.000000 280.000000
-326.000000 1512.000000 280.000000
-324.000000 1512.000000 280.000000
-322.000000 1512.000000 280.000000
-320.000000 1512.000000 280.000000
-318.000000 1512.000000 280.000000
-316.000000 1512.000000 280.000000
-314.000000 1512.000000 280.000000
-312.000000 1512.000000 280.000000
-310.000000 1512.000000 280.000000
-308.000000 1512.000000 280.000000
-306.000000 1512.000000 280.000000
-304.000000 1512.000000 280.000000
-302.000000 1512.000000 280.000000
-300.000000 1512.000000 280.000000
-298.000000 1512.000000 280.000000
-296.000000 1512.000000 280.000000
-294.000000 1512.000000 280.000000
-292.000000 1512.000000 280.000000
-290.000000 1512.000000 280.000000
-288.000000 1512.000000 280.000000
-286.000000 1512.000000 280.000000
-284.000000 1512.000000 280.000000
-282.000000 1512.000000 280.000000
-280.000000 1512.000000 280.000000
-278.000000 1512.000000 280.000000
-276.000000 1512.000000 280.000000
-274.000000 1512.000000 280.000000
-272.000000 1512.000000 280.000000
-270.000000 1512.000000 280.000000
-268.000000 1512.000000 280.000000
-266.000000 1512.000000 280.000000
-264.000000 1512.000000 280.000000
-262.000000 1512.000000 280.000000
-260.000000 1512.000000 280.000000
-258.000000 1512.000000 280.000000
-256.000000 1512.000000 280.000000
-254.000000 1512.000000 280.000000
-252.000000 1512.000000 280.000000
-250.000000 1512.000000 280.000000
-248.000000 1512.000000 280.000000
-246.000000 1512.000000 280.000000
-244.000000 1512.000000 280.000000
-242.000000 1512.000000 280.000000
-240.000000 1512.000000 280.000000
-238.000000 1512.000000 280.000000
-236.000000 1512.000000 280.000000
-234.000000 1512.000000 280.000000
-232.000000 1512.000000 280.000000
-230.000000 1512.000000 280.000000
-228.000000 1512.000000 280.000000
-226.000000 1512.000000 280.000000
-224.000000 1512.000000 280.000000
-222.000000 1512.000000 280.000000
-220.000000 1512.000000 280.000000
-218.000000 1512.000000 280.000000
-216.000000 1512.000000 280.000000
-214.000000 1512.000000 280.000000
-212.000000 1512.000000 280.000000
-210.000000 1512.000000 280.000000
-208.000000 1512.000000 280.000000
-206.000000 1512.000000 280.000000
-204.000000 1512.000000 280.000000
-202.000000 1512.000000 280.000000
-200.000000 1512.000000 280.000000
-198.000000 1512.000000 280.000000
-196.000000 1512.000000 280.000000
-194.000000 1512.000000 280.000000
-192.000000 1512.000000 280.000000
-190.000000 1512.000000 280.000000
-188.000000 1512.000000 280.000000
-186.000000 1512.000000 280.000000
-184.000000 1512.000000 280.000000
-182.000000 1512.000000 280.000000
-180.000000 1512.000000 280.000000
-178.000000 1512.000000 280.000000
-176.000000 1512.000000 280.000000
-174.000000 1512.000000 280.000000
-172.000000 1512.000000 280.000000
-170.000000 1512.000000 280.000000
-168.000000 1512.000000 280.000000
-166.000000 1512.000000 280.000000
-164.000000 1512.000000 280.000000
-162.000000 1512.000000 280.000000
-160.000000 1512.000000 280.000000
-158.000000 1512.000000 280.000000
-156.000000 1512.000000 280.000000
-154.000000 1512.000000 280.000000
-152.000000 1512.000000 280.000000
-150.000000 1512.000000 280.000000
-148.000000 1512.000000 280.000000
-146.000000 1512.000000 280.000000
-144.000000 1512.000000 280.000000
-142.000000 1512.000000 280.000000
-140.000000 1512.000000 280.000000
-138.000000 1512.000000 280.000000
-136.000000 1512.000000 280.000000
-134.000000 1512.000000 280.000000
-132.000000 1512.000000 280.000000
-130.000000 1512.000000 280.000000
-128.000000 1512.000000 280.000000
-126.000000 1512.000000 280.000000
-124.000000 1512.000000 280.000000
-122.000000 1512.000000 280.000000
-120.000000 1512.000000 280.000000
-118.000000 1512.000000 280.000000
-116.000000 1512.000000 280.000000
-114.000000 1512.000000 280.000000
-112.000000 1512.000000 280.000000
-110.000000 1512.000000 280.000000
-108.000000 1512.000000 280.000000
-106.000000 1512.000000 280.000000
-104.000000 1512.000000 280.000000
-102.000000 1512.000000 280.000000
-100.000000 1512.000000 280.000000
-96.000000 1512.000000 280.000000
-96.000000 1512.000000 280.000000
-94.421296 1510.772119 280.000000
-92.842591 1509.544238 280.000000
-91.263887 1508.316356 280.000000
-89.685182 1507.088475 280.000000
-88.106478 1505.860594 280.000000
-86.527773 1504.632713 280.000000
-84.949069 1503.404831 280.000000
-83.370365 1502.176950 280.000000
-81.791660 1500.949069 280.000000
-80.212956 1499.721188 280.000000
-78.634251 1498.493307 280.000000
-77.055547 1497.265425 280.000000
-75.476842 1496.037544 280.000000
-73.898138 1494.809663 280.000000
-72.319433 1493.581782 280.000000
-70.740729 1492.353900 280.000000
-69.162025 1491.126019 280.000000
-67.583320 1489.898138 280.000000
-66.004616 1488.670257 280.000000
-64.425911 1487.442375 280.000000
-62.847207 1486.214494 280.000000
-61.268502 1484.986613 280.000000
-59.689798 1483.758732 280.000000
-58.111094 1482.530851 280.000000
-56.532389 1481.302969 280.000000
-54.953685 1480.075088 280.000000
-53.374980 1478.847207 280.000000
-51.796276 1477.619326 280.000000
-50.217571 1476.391444 280.000000
-48.638867 1475.163563 280.000000
-47.060163 1473.935682 280.000000
-45.481458 1472.707801 280.000000
-43.902754 1471.479920 280.000000
-42.324049 1470.252038 280.000000
-40.745345 1469.024157 280.000000
-39.166640 1467.796276 280.000000
-37.587936 1466.568395 280.000000
-36.009231 1465.340513 280.000000
-34.430527 1464.112632 280.000000
-32.851823 1462.884751 280.000000
-31.273118 1461.656870 280.000000
-29.694414 1460.428988 280.000000
-28.115709 1459.201107 280.000000
-26.537005 1457.973226 280.000000
-24.000000 1456.000000 280.000000
-24.000000 1456.000000 280.000000
-22.549519 1454.710683 280.483494
-21.099037 1453.421367 280.966988
-19.648556 1452.132050 281.450481
-18.198075 1450.842733 281.933975
-16.747593 1449.553416 282.417469
-15.297112 1448.264100 282.900963
-13.846631 1446.974783 283.384456
-12.396149 1445.685466 283.867950
-10.945668 1444.396149 284.351444
-9.495187 1443.106833 284.834938
-8.044705 1441.817516 285.318432
-6.594224 1440.528199 285.801925
-5.143743 1439.238882 286.285419
-3.693261 1437.949566 286.768913
-2.242780 1436.660249 287.252407
-0.792299 1435.370932 287.735900
0.658183 1434.081615 288.219394
2.108664 1432.792299 288.702888
3.559145 1431.502982 289.186382
5.009627 1430.213665 289.669876
6.460108 1428.924348 290.153369
7.910589 1427.635032 290.636863
9.361071 1426.345715 291.120357
10.811552 1425.056398 291.603851
12.262033 1423.767081 292.087344
13.712515 1422.477765 292.570838
15.162996 1421.188448 293.054332
16.613477 1419.899131 293.537826
18.063959 1418.609814 294.021320
19.514440 1417.320498 294.504813
20.964921 1416.031181 294.988307
22.415403 1414.741864 295.471801
23.865884 1413.452547 295.955295
25.316365 1412.163231 296.438788
26.766847 1410.873914 296.922282
28.217328 1409.584597 297.405776
29.667809 1408.295281 297.889270
31.118291 1407.005964 298.372764
32.568772 1405.716647 298.856257
34.019253 1404.427330 299.339751
35.469735 1403.138014 299.823245
36.920216 1401.848697 300.306739
38.370697 1400.559380 300.790232
39.821179 1399.270063 301.273726
41.271660 1397.980747 301.757220
42.722141 1396.691430 302.240714
44.172623 1395.402113 302.724208
45.623104 1394.112796 303.207701
48.000000 1392.000000 304.000000
48.000000 1392.000000 304.000000
49.955421 1392.264797 303.674097
51.910841 1392.529593 303.348193
53.866262 1392.794390 303.022290
55.821682 1393.059186 302.696386
57.777103 1393.323983 302.370483
59.732524 1393.588779 302.044579
61.687944 1393.853576 301.718676
63.643365 1394.118372 301.392773
65.598785 1394.383169 301.066869
67.554206 1394.647965 300.740966
69.509627 1394.912762 300.415062
71.465047 1395.177558 300.089159
73.420468 1395.442355 299.763255
75.375888 1395.707152 299.437352
77.331309 1395.971948 299.111448
79.286730 1396.236745 298.785545
81.242150 1396.501541 298.459642
83.197571 1396.766338 298.133738
85.152992 1397.031134 297.807835
87.108412 1397.295931 297.481931
89.063833 1397.560727 297.156028
91.019253 1397.825524 296.830124
92.974674 1398.090320 296.504221
94.930095 1398.355117 296.178318
96.885515 1398.619914 295.852414
98.840936 1398.884710 295.526511
100.796356 1399.149507 295.200607
102.751777 1399.414303 294.874704
104.707198 1399.679100 294.548800
106.662618 1399.943896 294.222897
108.618039 1400.208693 293.896994
110.573459 1400.473489 293.571090
112.528880 1400.738286 293.245187
114.484301 1401.003082 292.919283
116.439721 1401.267879 292.593380
118.395142 1401.532675 292.267476
120.350562 1401.797472 291.941573
122.305983 1402.062269 291.615669
124.261404 1402.327065 291.289766
126.216824 1402.591862 290.963863
128.172245 1402.856658 290.637959
130.127665 1403.121455 290.312056
132.083086 1403.386251 289.986152
134.038507 1403.651048 289.660249
135.993927 1403.915844 289.334345
137.949348 1404.180641 289.008442
139.904768 1404.445437 288.682539
141.860189 1404.710234 288.356635
143.815610 1404.975030 288.030732
145.771030 1405.239827 287.704828
147.726451 1405.504624 287.378925
149.681871 1405.769420 287.053021
151.637292 1406.034217 286.727118
153.592713 1406.299013 286.401215
155.548133 1406.563810 286.075311
157.503554 1406.828606 285.749408
159.458975 1407.093403 285.423504
161.414395 1407.358199 285.097601
163.369816 1407.622996 284.771697
165.325236 1407.887792 284.445794
167.280657 1408.152589 284.119891
169.236078 1408.417385 283.793987
171.191498 1408.682182 283.468084
173.146919 1408.946979 283.142180
175.102339 1409.211775 282.816277
177.057760 1409.476572 282.490373
179.013181 1409.741368 282.164470
180.968601 1410.006165 281.838566
182.924022 1410.270961 281.512663
184.879442 1410.535758 281.186760
186.834863 1410.800554 280.860856
188.790284 1411.065351 280.534953
190.745704 1411.330147 280.209049
192.701125 1411.594944 279.883146
194.656545 1411.859741 279.557242
196.611966 1412.124537 279.231339
198.567387 1412.389334 278.905436
200.522807 1412.654130 278.579532
202.478228 1412.918927 278.253629
204.433648 1413.183723 277.927725
206.389069 1413.448520 277.601822
208.344490 1413.713316 277.275918
210.299910 1413.978113 276.950015
212.255331 1414.242909 276.624112
214.210751 1414.507706 276.298208
216.166172 1414.772502 275.972305
218.121593 1415.037299 275.646401
220.077013 1415.302096 275.320498
222.032434 1415.566892 274.994594
223.987854 1415.831689 274.668691
225.943275 1416.096485 274.342787
227.898696 1416.361282 274.016884
229.854116 1416.626078 273.690981
231.809537 1416.890875 273.365077
233.764958 1417.155671 273.039174
235.720378 1417.420468 272.713270
237.675799 1417.685264 272.387367
239.631219 1417.950061 272.061463
241.586640 1418.214857 271.735560
243.542061 1418.479654 271.409657
245.497481 1418.744451 271.083753
247.452902 1419.009247 270.757850
249.408322 1419.274044 270.431946
251.363743 1419.538840 270.106043
253.319164 1419.803637 269.780139
255.274584 1420.068433 269.454236
257.230005 1420.333230 269.128333
259.185425 1420.598026 268.802429
261.140846 1420.862823 268.476526
263.096267 1421.127619 268.150622
265.051687 1421.392416 267.824719
267.007108 1421.657213 267.498815
268.962528 1421.922009 267.172912
270.917949 1422.186806 266.847008
272.873370 1422.451602 266.521105
274.828790 1422.716399 266.195202
276.784211 1422.981195 265.869298
278.739631 1423.245992 265.543395
280.695052 1423.510788 265.217491
282.650473 1423.775585 264.891588
284.605893 1424.040381 264.565684
286.561314 1424.305178 264.239781
288.516734 1424.569974 263.913878
290.472155 1424.834771 263.587974
292.427576 1425.099568 263.262071
294.382996 1425.364364 262.936167
296.338417 1425.629161 262.610264
298.293837 1425.893957 262.284360
300.249258 1426.158754 261.958457
302.204679 1426.423550 261.632554
304.160099 1426.688347 261.306650
306.115520 1426.953143 260.980747
308.070941 1427.217940 260.654843
310.026361 1427.482736 260.328940
311.981782 1427.747533 260.003036
313.937202 1428.012329 259.677133
315.892623 1428.277126 259.351230
317.848044 1428.541923 259.025326
319.803464 1428.806719 258.699423
321.758885 1429.071516 258.373519
323.714305 1429.336312 258.047616
325.669726 1429.601109 257.721712
327.625147 1429.865905 257.395809
329.580567 1430.130702 257.069905
331.535988 1430.395498 256.744002
333.491408 1430.660295 256.418099
335.446829 1430.925091 256.092195
337.402250 1431.189888 255.766292
339.357670 1431.454685 255.440388
341.313091 1431.719481 255.114485
343.268511 1431.984278 254.788581
345.223932 1432.249074 254.462678
347.179353 1432.513871 254.136775
349.134773 1432.778667 253.810871
351.090194 1433.043464 253.484968
353.045614 1433.308260 253.159064
355.001035 1433.573057 252.833161
356.956456 1433.837853 252.507257
358.911876 1434.102650 252.181354
360.867297 1434.367446 251.855451
362.822717 1434.632243 251.529547
364.778138 1434.897040 251.203644
366.733559 1435.161836 250.877740
368.688979 1435.426633 250.551837
370.644400 1435.691429 250.225933
372.599820 1435.956226 249.900030
374.555241 1436.221022 249.574126
376.510662 1436.485819 249.248223
378.466082 1436.750615 248.922320
380.421503 1437.015412 248.596416
382.376924 1437.280208 248.270513
384.332344 1437.545005 247.944609
386.287765 1437.809801 247.618706
388.243185 1438.074598 247.292802
390.198606 1438.339395 246.966899
392.154027 1438.604191 246.640996
394.109447 1438.868988 246.315092
396.064868 1439.133784 245.989189
398.020288 1439.398581 245.663285
399.975709 1439.663377 245.337382
401.931130 1439.928174 245.011478
403.886550 1440.192970 244.685575
405.841971 1440.457767 244.359672
407.797391 1440.722563 244.033768
409.752812 1440.987360 243.707865
411.708233 1441.252156 243.381961
413.663653 1441.516953 243.056058
415.619074 1441.781750 242.730154
417.574494 1442.046546 242.404251
419.529915 1442.311343 242.078347
421.485336 1442.576139 241.752444
423.440756 1442.840936 241.426541
425.396177 1443.105732 241.100637
427.351597 1443.370529 240.774734
429.307018 1443.635325 240.448830
432.000000 1444.000000 240.000000
432.000000 1444.000000 240.000000
432.000000 1442.002160 239.907077
432.000000 1440.004320 239.814154
432.000000 1438.006479 239.721232
432.000000 1436.008639 239.628309
432.000000 1434.010799 239.535386
432.000000 1432.012959 239.442463
432.000000 1430.015119 239.349540
432.000000 1428.017279 239.256618
432.000000 1426.019438 239.163695
432.000000 1424.021598 239.070772
432.000000 1422.023758 238.977849
432.000000 1420.025918 238.884926
432.000000 1418.028078 238.792004
432.000000 1416.030238 238.699081
432.000000 1414.032397 238.606158
432.000000 1412.034557 238.513235
432.000000 1410.036717 238.420312
432.000000 1408.038877 238.327390
432.000000 1406.041037 238.234467
432.000000 1404.043197 238.141544
432.000000 1402.045356 238.048621
432.000000 1400.047516 237.955698
432.000000 1398.049676 237.862776
432.000000 1396.051836 237.769853
432.000000 1394.053996 237.676930
432.000000 1392.056156 237.584007
432.000000 1390.058315 237.491084
432.000000 1388.060475 237.398162
432.000000 1386.062635 237.305239
