-782.228166 -1164.000000 329.761281
-780.252327 -1164.000000 329.451345
-778.276488 -1164.000000 329.141410
-776.300649 -1164.000000 328.831474
-774.324810 -1164.000000 328.521539
-772.348971 -1164.000000 328.211603
-770.373131 -1164.000000 327.901668
-768.397292 -1164.000000 327.591732
-766.421453 -1164.000000 327.281797
-764.445614 -1164.000000 326.971861
-762.469775 -1164.000000 326.661926
-760.493936 -1164.000000 326.351990
-758.518097 -1164.000000 326.042054
-756.542258 -1164.000000 325.732119
-754.566419 -1164.000000 325.422183
-752.590580 -1164.000000 325.112248
-750.614741 -1164.000000 324.802312
-748.638902 -1164.000000 324.492377
-746.663063 -1164.000000 324.182441
-744.687224 -1164.000000 323.872506
-742.711385 -1164.000000 323.562570
-740.735546 -1164.000000 323.252635
-738.759707 -1164.000000 322.942699
-736.783868 -1164.000000 322.632764
-734.808028 -1164.000000 322.322828
-732.832189 -1164.000000 322.012892
-730.856350 -1164.000000 321.702957
-728.880511 -1164.000000 321.393021
-726.904672 -1164.000000 321.083086
-724.928833 -1164.000000 320.773150
-722.952994 -1164.000000 320.463215
-720.000000 -1164.000000 320.000000
-720.000000 -1164.000000 320.000000
-718.059715 -1163.514929 320.000000
-716.119430 -1163.029857 320.000000
-714.179145 -1162.544786 320.000000
-712.238860 -1162.059715 320.000000
-710.298575 -1161.574644 320.000000
-708.358290 -1161.089572 320.000000
-706.418005 -1160.604501 320.000000
-704.477720 -1160.119430 320.000000
-702.537435 -1159.634359 320.000000
-700.597150 -1159.149287 320.000000
-698.656865 -1158.664216 320.000000
-696.716580 -1158.179145 320.000000
-694.776295 -1157.694074 320.000000
-692.836010 -1157.209002 320.000000
-690.895725 -1156.723931 320.000000
-688.000000 -1156.000000 320.000000
-688.000000 -1156.000000 320.000000
-687.237646 -1157.829650 319.733176
-686.475291 -1159.659301 319.466352
-685.712937 -1161.488951 319.199528
-684.950583 -1163.318602 318.932704
-684.188228 -1165.148252 318.665880
-683.425874 -1166.977903 318.399056
-682.663520 -1168.807553 318.132232
-681.901165 -1170.637204 317.865408
-681.138811 -1172.466854 317.598584
-680.376456 -1174.296505 317.331760
-679.614102 -1176.126155 317.064936
-678.851748 -1177.955805 316.798112
-678.089393 -1179.785456 316.531288
-677.327039 -1181.615106 316.264464
-676.564685 -1183.444757 315.997640
-675.802330 -1185.274407 315.730816
-675.039976 -1187.104058 315.463992
-674.277622 -1188.933708 315.197168
-673.515267 -1190.763359 314.930344
-672.752913 -1192.593009 314.663520
-671.990559 -1194.422659 314.396695
-671.228204 -1196.252310 314.129871
-670.465850 -1198.081960 313.863047
-669.703495 -1199.911611 313.596223
-668.941141 -1201.741261 313.329399
-668.178787 -1203.570912 313.062575
-667.416432 -1205.400562 312.795751
-666.654078 -1207.230213 312.528927
-665.891724 -1209.059863 312.262103
-665.129369 -1210.889514 311.995279
-664.367015 -1212.719164 311.728455
-663.604661 -1214.548814 311.461631
-662.842306 -1216.378465 311.194807
-662.079952 -1218.208115 310.927983
-661.317598 -1220.037766 310.661159
-660.555243 -1221.867416 310.394335
-659.792889 -1223.697067 310.127511
-659.030535 -1225.526717 309.860687
-658.268180 -1227.356368 309.593863
-657.505826 -1229.186018 309.327039
-656.743471 -1231.015669 309.060215
-655.981117 -1232.845319 308.793391
-655.218763 -1234.674969 308.526567
-654.456408 -1236.504620 308.259743
-653.694054 -1238.334270 307.992919
-652.931700 -1240.163921 307.726095
-652.169345 -1241.993571 307.459271
-651.406991 -1243.823222 307.192447
-650.644637 -1245.652872 306.925623
-649.882282 -1247.482523 306.658799
-649.119928 -1249.312173 306.391975
-648.357574 -1251.141824 306.125151
-647.595219 -1252.971474 305.858327
-646.832865 -1254.801124 305.591503
-646.070510 -1256.630775 305.324679
-645.308156 -1258.460425 305.057855
-644.545802 -1260.290076 304.791031
-643.783447 -1262.119726 304.524207
-643.021093 -1263.949377 304.257383
-642.258739 -1265.779027 303.990559
-641.496384 -1267.608678 303.723735
-640.734030 -1269.438328 303.456910
-639.971676 -1271.267978 303.190086
-639.209321 -1273.097629 302.923262
-638.446967 -1274.927279 302.656438
-637.684613 -1276.756930 302.389614
-636.922258 -1278.586580 302.122790
-636.159904 -1280.416231 301.855966
-635.397549 -1282.245881 301.589142
-634.635195 -1284.075532 301.322318
-633.872841 -1285.905182 301.055494
-633.110486 -1287.734833 300.788670
-632.348132 -1289.564483 300.521846
-631.585778 -1291.394133 300.255022
-630.823423 -1293.223784 299.988198
-630.061069 -1295.053434 299.721374
-629.298715 -1296.883085 299.454550
-628.536360 -1298.712735 299.187726
-627.774006 -1300.542386 298.920902
-627.011652 -1302.372036 298.654078
-626.249297 -1304.201687 298.387254
-625.486943 -1306.031337 298.120430
-624.724589 -1307.860988 297.853606
-623.962234 -1309.690638 297.586782
-623.199880 -1311.520288 297.319958
-622.437525 -1313.349939 297.053134
-621.675171 -1315.179589 296.786310
-620.912817 -1317.009240 296.519486
-620.150462 -1318.838890 296.252662
-619.388108 -1320.668541 295.985838
-618.625754 -1322.498191 295.719014
-617.863399 -1324.327842 295.452190
-617.101045 -1326.157492 295.185366
-616.338691 -1327.987143 294.918542
-615.576336 -1329.816793 294.651718
-614.813982 -1331.646443 294.384894
-614.051628 -1333.476094 294.118070
-613.289273 -1335.305744 293.851246
-612.526919 -1337.135395 293.584422
-611.764564 -1338.965045 293.317598
-611.002210 -1340.794696 293.050774
-610.239856 -1342.624346 292.783950
-609.477501 -1344.453997 292.517125
-608.715147 -1346.283647 292.250301
-607.952793 -1348.113297 291.983477
-607.190438 -1349.942948 291.716653
-606.428084 -1351.772598 291.449829
-605.665730 -1353.602249 291.183005
-604.903375 -1355.431899 290.916181
-604.141021 -1357.261550 290.649357
-603.378667 -1359.091200 290.382533
-602.616312 -1360.920851 290.115709
-601.853958 -1362.750501 289.848885
-601.091604 -1364.580152 289.582061
-600.329249 -1366.409802 289.315237
-599.566895 -1368.239452 289.048413
-598.804540 -1370.069103 288.781589
-598.042186 -1371.898753 288.514765
-597.279832 -1373.728404 288.247941
-596.517477 -1375.558054 287.981117
-595.755123 -1377.387705 287.714293
-594.992769 -1379.217355 287.447469
-594.230414 -1381.047006 287.180645
-593.468060 -1382.876656 286.913821
-592.705706 -1384.706307 286.646997
-591.943351 -1386.535957 286.380173
-591.180997 -1388.365607 286.113349
-590.418643 -1390.195258 285.846525
-589.656288 -1392.024908 285.579701
-588.893934 -1393.854559 285.312877
-588.131579 -1395.684209 285.046053
-587.369225 -1397.513860 284.779229
-586.606871 -1399.343510 284.512405
-585.844516 -1401.173161 284.245581
-585.082162 -1403.002811 283.978757
-584.319808 -1404.832462 283.711933
-583.557453 -1406.662112 283.445109
-582.795099 -1408.491762 283.178285
-582.032745 -1410.321413 282.911461
-581.270390 -1412.151063 282.644637
-580.508036 -1413.980714 282.377813
-579.745682 -1415.810364 282.110989
-578.983327 -1417.640015 281.844165
-578.220973 -1419.469665 281.577341
-577.458619 -1421.299316 281.310516
-576.696264 -1423.128966 281.043692
-575.933910 -1424.958616 280.776868
-575.171555 -1426.788267 280.510044
-574.409201 -1428.617917 280.243220
-573.646847 -1430.447568 279.976396
-572.884492 -1432.277218 279.709572
-572.122138 -1434.106869 279.442748
-571.359784 -1435.936519 279.175924
-570.597429 -1437.766170 278.909100
-569.835075 -1439.595820 278.642276
-569.072721 -1441.425471 278.375452
-568.310366 -1443.255121 278.108628
-567.548012 -1445.084771 277.841804
-566.785658 -1446.914422 277.574980
-566.023303 -1448.744072 277.308156
-565.260949 -1450.573723 277.041332
-564.498594 -1452.403373 276.774508
-563.736240 -1454.233024 276.507684
-562.973886 -1456.062674 276.240860
-562.211531 -1457.892325 275.974036
-561.449177 -1459.721975 275.707212
-560.686823 -1461.551626 275.440388
-559.924468 -1463.381276 275.173564
-559.162114 -1465.210926 274.906740
-558.399760 -1467.040577 274.639916
-557.637405 -1468.870227 274.373092
-556.875051 -1470.699878 274.106268
-556.112697 -1472.529528 273.839444
-555.350342 -1474.359179 273.572620
-554.587988 -1476.188829 273.305796
-553.825634 -1478.018480 273.038972
-553.063279 -1479.848130 272.772148
-552.300925 -1481.677780 272.505324
-551.538570 -1483.507431 272.238500
-550.776216 -1485.337081 271.971676
-550.013862 -1487.166732 271.704852
-549.251507 -1488.996382 271.438028
-548.489153 -1490.826033 271.171204
-547.726799 -1492.655683 270.904380
-546.964444 -1494.485334 270.637556
-546.202090 -1496.314984 270.370731
-545.439736 -1498.144635 270.103907
-544.677381 -1499.974285 269.837083
-543.915027 -1501.803935 269.570259
-543.152673 -1503.633586 269.303435
-542.390318 -1505.463236 269.036611
-541.627964 -1507.292887 268.769787
-540.865609 -1509.122537 268.502963
-540.103255 -1510.952188 268.236139
-539.340901 -1512.781838 267.969315
-538.578546 -1514.611489 267.702491
-537.816192 -1516.441139 267.435667
-537.053838 -1518.270790 267.168843
-536.291483 -1520.100440 266.902019
-535.529129 -1521.930090 266.635195
-534.766775 -1523.759741 266.368371
-534.004420 -1525.589391 266.101547
-533.242066 -1527.419042 265.834723
-532.479712 -1529.248692 265.567899
-531.717357 -1531.078343 265.301075
-530.955003 -1532.907993 265.034251
-530.192648 -1534.737644 264.767427
-529.430294 -1536.567294 264.500603
-528.000000 -1540.000000 264.000000
-528.000000 -1540.000000 264.000000
-527.893019 -1539.732548 262.020853
-527.786038 -1539.465095 260.041705
-527.679057 -1539.197643 258.062558
-527.572076 -1538.930191 256.083411
-527.465095 -1538.662738 254.104263
-527.358114 -1538.395286 252.125116
-527.251133 -1538.127834 250.145968
-527.144152 -1537.860381 248.166821
-527.037172 -1537.592929 246.187674
-526.930191 -1537.325477 244.208526
-526.823210 -1537.058024 242.229379
-526.716229 -1536.790572 240.250232
-526.609248 -1536.523119 238.271084
-526.502267 -1536.255667 236.291937
-526.395286 -1535.988215 234.312789
-526.288305 -1535.720762 232.333642
-526.181324 -1535.453310 230.354495
-526.074343 -1535.185858 228.375347
-525.967362 -1534.918405 226.396200
-525.860381 -1534.650953 224.417053
-525.753400 -1534.383501 222.437905
-525.646419 -1534.116048 220.458758
-525.539438 -1533.848596 218.479610
-525.432457 -1533.581144 216.500463
-525.325477 -1533.313691 214.521316
-525.218496 -1533.046239 212.542168
-525.111515 -1532.778787 210.563021
-525.004534 -1532.511334 208.583874
-524.897553 -1532.243882 206.604726
-524.790572 -1531.976430 204.625579
-524.683591 -1531.708977 202.646431
-524.576610 -1531.441525 200.667284
-524.469629 -1531.174073 198.688137
-524.362648 -1530.906620 196.708989
-524.255667 -1530.639168 194.729842
-524.148686 -1530.371715 192.750695
-524.041705 -1530.104263 190.771547
-523.934724 -1529.836811 188.792400
-523.827743 -1529.569358 186.813252
-523.720762 -1529.301906 184.834105
-523.613781 -1529.034454 182.854958
-523.506801 -1528.767001 180.875810
-523.399820 -1528.499549 178.896663
-523.292839 -1528.232097 176.917516
-523.185858 -1527.964644 174.938368
-523.078877 -1527.697192 172.959221
-522.971896 -1527.429740 170.980074
-522.864915 -1527.162287 169.000926
-522.757934 -1526.894835 167.021779
-522.650953 -1526.627383 165.042631
-522.543972 -1526.359930 163.063484
-522.436991 -1526.092478 161.084337
-522.330010 -1525.825026 159.105189
-522.223029 -1525.557573 157.126042
-522.116048 -1525.290121 155.146895
-522.009067 -1525.022669 153.167747
-521.902086 -1524.755216 151.188600
-521.795106 -1524.487764 149.209452
-521.688125 -1524.220311 147.230305
-521.581144 -1523.952859 145.251158
-521.474163 -1523.685407 143.272010
-521.367182 -1523.417954 141.292863
-521.260201 -1523.150502 139.313716
-521.153220 -1522.883050 137.334568
-521.046239 -1522.615597 135.355421
-520.939258 -1522.348145 133.376273
-520.832277 -1522.080693 131.397126
-520.725296 -1521.813240 129.417979
-520.618315 -1521.545788 127.438831
-520.511334 -1521.278336 125.459684
-520.404353 -1521.010883 123.480537
-520.297372 -1520.743431 121.501389
-520.190391 -1520.475979 119.522242
-520.000000 -1520.000000 116.000000
-520.000000 -1520.000000 116.000000
-520.000000 -1518.041228 116.403997
-520.000000 -1516.082457 116.807993
-520.000000 -1514.123685 117.211990
-520.000000 -1512.164913 117.615987
-520.000000 -1510.206141 118.019983
-520.000000 -1508.247370 118.423980
-520.000000 -1506.288598 118.827977
-520.000000 -1504.329826 119.231973
-520.000000 -1502.371054 119.635970
-520.000000 -1500.412283 120.039967
-520.000000 -1498.453511 120.443963
-520.000000 -1496.494739 120.847960
-520.000000 -1494.535968 121.251957
-520.000000 -1492.577196 121.655953
-520.000000 -1490.618424 122.059950
-520.000000 -1488.659652 122.463947
-520.000000 -1486.700881 122.867943
-520.000000 -1484.742109 123.271940
-520.000000 -1482.783337 123.675937
-520.000000 -1480.824565 124.079933
-520.000000 -1478.865794 124.483930
-520.000000 -1476.907022 124.887927
-520.000000 -1474.948250 125.291923
-520.000000 -1472.989478 125.695920
-520.000000 -1471.030707 126.099917
-520.000000 -1469.071935 126.503913
-520.000000 -1467.113163 126.907910
-520.000000 -1465.154392 127.311907
-520.000000 -1463.195620 127.715903
-520.000000 -1461.236848 128.119900
-520.000000 -1459.278076 128.523897
-520.000000 -1457.319305 128.927893
-520.000000 -1455.360533 129.331890
-520.000000 -1453.401761 129.735887
-520.000000 -1451.442989 130.139883
-520.000000 -1449.484218 130.543880
-520.000000 -1447.525446 130.947877
-520.000000 -1445.566674 131.351873
-520.000000 -1443.607903 131.755870
-520.000000 -1441.649131 132.159867
-520.000000 -1439.690359 132.563863
-520.000000 -1437.731587 132.967860
-520.000000 -1435.772816 133.371857
-520.000000 -1433.814044 133.775853
-520.000000 -1431.855272 134.179850
-520.000000 -1429.896500 134.583847
-520.000000 -1427.937729 134.987843
-520.000000 -1425.978957 135.391840
-520.000000 -1424.020185 135.795837
-520.000000 -1422.061413 136.199833
-520.000000 -1420.102642 136.603830
-520.000000 -1418.143870 137.007827
-520.000000 -1416.185098 137.411823
-520.000000 -1414.226327 137.815820
-520.000000 -1412.267555 138.219817
-520.000000 -1410.308783 138.623813
-520.000000 -1408.350011 139.027810
-520.000000 -1406.391240 139.431807
-520.000000 -1404.432468 139.835803
-520.000000 -1402.473696 140.239800
-520.000000 -1400.514924 140.643797
-520.000000 -1398.556153 141.047794
-520.000000 -1396.597381 141.451790
-520.000000 -1394.638609 141.855787
-520.000000 -1392.679838 142.259784
-520.000000 -1390.721066 142.663780
-520.000000 -1388.762294 143.067777
-520.000000 -1386.803522 143.471774
-520.000000 -1384.844751 143.875770
-520.000000 -1382.885979 144.279767
-520.000000 -1380.927207 144.683764
-520.000000 -1378.968435 145.087760
-520.000000 -1377.009664 145.491757
-520.000000 -1375.050892 145.895754
-520.000000 -1373.092120 146.299750
-520.000000 -1371.133349 146.703747
-520.000000 -1369.174577 147.107744
-520.000000 -1367.215805 147.511740
-520.000000 -1365.257033 147.915737
-520.000000 -1363.298262 148.319734
-520.000000 -1361.339490 148.723730
-520.000000 -1359.380718 149.127727
-520.000000 -1357.421946 149.531724
-520.000000 -1355.463175 149.935720
-520.000000 -1353.504403 150.339717
-520.000000 -1351.545631 150.743714
-520.000000 -1349.586859 151.147710
-520.000000 -1347.628088 151.551707
-520.000000 -1345.669316 151.955704
-520.000000 -1343.710544 152.359700
-520.000000 -1341.751773 152.763697
-520.000000 -1339.793001 153.167694
-520.000000 -1337.834229 153.571690
-520.000000 -1335.875457 153.975687
-520.000000 -1333.916686 154.379684
-520.000000 -1331.957914 154.783680
-520.000000 -1329.999142 155.187677
-520.000000 -1328.040370 155.591674
-520.000000 -1326.081599 155.995670
-520.000000 -1324.122827 156.399667
-520.000000 -1322.164055 156.803664
-520.000000 -1320.205284 157.207660
-520.000000 -1318.246512 157.611657
-520.000000 -1316.287740 158.015654
-520.000000 -1314.328968 158.419650
-520.000000 -1312.370197 158.823647
-520.000000 -1310.411425 159.227644
-520.000000 -1308.452653 159.631640
-520.000000 -1306.493881 160.035637
-520.000000 -1304.535110 160.439634
-520.000000 -1302.576338 160.843630
-520.000000 -1300.617566 161.247627
-520.000000 -1298.658794 161.651624
-520.000000 -1296.700023 162.055620
-520.000000 -1294.741251 162.459617
-520.000000 -1292.782479 162.863614
-520.000000 -1290.823708 163.267610
-520.000000 -1288.864936 163.671607
-520.000000 -1286.906164 164.075604
-520.000000 -1284.947392 164.479600
-520.000000 -1282.988621 164.883597
-520.000000 -1281.029849 165.287594
-520.000000 -1279.071077 165.691590
-520.000000 -1277.112305 166.095587
-520.000000 -1275.153534 166.499584
-520.000000 -1273.194762 166.903580
-520.000000 -1271.235990 167.307577
-520.000000 -1269.277219 167.711574
-520.000000 -1267.318447 168.115570
-520.000000 -1265.359675 168.519567
-520.000000 -1263.400903 168.923564
-520.000000 -1261.442132 169.327560
-520.000000 -1259.483360 169.731557
-520.000000 -1257.524588 170.135554
-520.000000 -1255.565816 170.539550
-520.000000 -1253.607045 170.943547
-520.000000 -1251.648273 171.347544
-520.000000 -1249.689501 171.751540
-520.000000 -1247.730729 172.155537
-520.000000 -1245.771958 172.559534
-520.000000 -1243.813186 172.963530
-520.000000 -1241.854414 173.367527
-520.000000 -1239.895643 173.771524
-520.000000 -1237.936871 174.175520
-520.000000 -1235.978099 174.579517
-520.000000 -1234.019327 174.983514
-520.000000 -1232.060556 175.387510
-520.000000 -1230.101784 175.791507
-520.000000 -1228.143012 176.195504
-520.000000 -1226.184240 176.599500
-520.000000 -1224.225469 177.003497
-520.000000 -1222.266697 177.407494
-520.000000 -1220.307925 177.811490
-520.000000 -1218.349154 178.215487
-520.000000 -1216.390382 178.619484
-520.000000 -1214.431610 179.023480
-520.000000 -1212.472838 179.427477
-520.000000 -1210.514067 179.831474
-520.000000 -1208.555295 180.235470
-520.000000 -1206.596523 180.639467
-520.000000 -1204.637751 181.043464
-520.000000 -1202.678980 181.447460
-520.000000 -1200.720208 181.851457
-520.000000 -1198.761436 182.255454
-520.000000 -1196.802665 182.659450
-520.000000 -1194.843893 183.063447
-520.000000 -1192.885121 183.467444
-520.000000 -1190.926349 183.871440
-520.000000 -1188.967578 184.275437
-520.000000 -1187.008806 184.679434
-520.000000 -1185.050034 185.083430
-520.000000 -1183.091262 185.487427
-520.000000 -1181.132491 185.891424
-520.000000 -1179.173719 186.295420
-520.000000 -1177.214947 186.699417
-520.000000 -1175.256175 187.103414
-520.000000 -1173.297404 187.507410
-520.000000 -1171.338632 187.911407
-520.000000 -1169.379860 188.315404
-520.000000 -1167.421089 188.719400
-520.000000 -1165.462317 189.123397
-520.000000 -1163.503545 189.527394
-520.000000 -1161.544773 189.931390
-520.000000 -1159.586002 190.335387
-520.000000 -1157.627230 190.739384
-520.000000 -1155.668458 191.143381
-520.000000 -1153.709686 191.547377
-520.000000 -1151.750915 191.951374
-520.000000 -1149.792143 192.355371
-520.000000 -1147.833371 192.759367
-520.000000 -1145.874600 193.163364
-520.000000 -1143.915828 193.567361
-520.000000 -1141.957056 193.971357
-520.000000 -1139.998284 194.375354
-520.000000 -1138.039513 194.779351
-520.000000 -1136.080741 195.183347
-520.000000 -1134.121969 195.587344
-520.000000 -1132.163197 195.991341
-520.000000 -1130.204426 196.395337
-520.000000 -1128.245654 196.799334
-520.000000 -1126.286882 197.203331
-520.000000 -1124.328110 197.607327
-520.000000 -1122.369339 198.011324
-520.000000 -1120.410567 198.415321
-520.000000 -1118.451795 198.819317
-520.000000 -1116.493024 199.223314
-520.000000 -1114.534252 199.627311
-520.000000 -1112.575480 200.031307
-520.000000 -1110.616708 200.435304
-520.000000 -1108.657937 200.839301
-520.000000 -1106.699165 201.243297
-520.000000 -1104.740393 201.647294
-520.000000 -1102.781621 202.051291
-520.000000 -1100.822850 202.455287
-520.000000 -1098.864078 202.859284
-520.000000 -1096.905306 203.263281
-520.000000 -1094.946535 203.667277
-520.000000 -1092.987763 204.071274
-520.000000 -1091.028991 204.475271
-520.000000 -1089.070219 204.879267
-520.000000 -1087.111448 205.283264
-520.000000 -1085.152676 205.687261
-520.000000 -1083.193904 206.091257
-520.000000 -1081.235132 206.495254
-520.000000 -1079.276361 206.899251
-520.000000 -1077.317589 207.303247
-520.000000 -1075.358817 207.707244
-520.000000 -1073.400046 208.111241
-520.000000 -1071.441274 208.515237
-520.000000 -1069.482502 208.919234
-520.000000 -1067.523730 209.323231
-520.000000 -1065.564959 209.727227
-520.000000 -1063.606187 210.131224
-520.000000 -1061.647415 210.535221
-520.000000 -1059.688643 210.939217
-520.000000 -1057.729872 211.343214
-520.000000 -1055.771100 211.747211
-520.000000 -1053.812328 212.151207
-520.000000 -1051.853556 212.555204
-520.000000 -1049.894785 212.959201
-520.000000 -1047.936013 213.363197
-520.000000 -1045.977241 213.767194
-520.000000 -1044.018470 214.171191
-520.000000 -1042.059698 214.575187
-520.000000 -1040.100926 214.979184
-520.000000 -1038.142154 215.383181
-520.000000 -1036.183383 215.787177
-520.000000 -1034.224611 216.191174
-520.000000 -1032.265839 216.595171
-520.000000 -1030.307067 216.999167
-520.000000 -1028.348296 217.403164
-520.000000 -1026.389524 217.807161
-520.000000 -1024.430752 218.211157
-520.000000 -1022.471981 218.615154
-520.000000 -1020.513209 219.019151
-520.000000 -1018.554437 219.423147
-520.000000 -1016.595665 219.827144
-520.000000 -1014.636894 220.231141
-520.000000 -1012.678122 220.635137
-520.000000 -1010.719350 221.039134
-520.000000 -1008.760578 221.443131
-520.000000 -1006.801807 221.847127
-520.000000 -1004.843035 222.251124
-520.000000 -1002.884263 222.655121
-520.000000 -1000.925491 223.059117
-520.000000 -998.966720 223.463114
-520.000000 -997.007948 223.867111
-520.000000 -995.049176 224.271107
-520.000000 -993.090405 224.675104
-520.000000 -991.131633 225.079101
-520.000000 -989.172861 225.483097
-520.000000 -987.214089 225.887094
-520.000000 -985.255318 226.291091
-520.000000 -983.296546 226.695087
-520.000000 -981.337774 227.099084
-520.000000 -979.379002 227.503081
-520.000000 -977.420231 227.907077
-520.000000 -975.461459 228.311074
-520.000000 -973.502687 228.715071
-520.000000 -971.543916 229.119067
-520.000000 -969.585144 229.523064
-520.000000 -967.626372 229.927061
-520.000000 -965.667600 230.331057
-520.000000 -963.708829 230.735054
-520.000000 -961.750057 231.139051
-520.000000 -959.791285 231.543047
-520.000000 -957.832513 231.947044
-520.000000 -955.873742 232.351041
-520.000000 -953.914970 232.755037
-520.000000 -951.956198 233.159034
-520.000000 -949.997427 233.563031
-520.000000 -948.038655 233.967027
-520.000000 -946.079883 234.371024
-520.000000 -944.121111 234.775021
-520.000000 -942.162340 235.179017
-520.000000 -940.203568 235.583014
-520.000000 -938.244796 235.987011
-520.000000 -936.286024 236.391007
-520.000000 -934.327253 236.795004
-520.000000 -932.368481 237.199001
-520.000000 -930.409709 237.602997
-520.000000 -928.450937 238.006994
-520.000000 -926.492166 238.410991
-520.000000 -924.533394 238.814987
-520.000000 -922.574622 239.218984
-520.000000 -920.615851 239.622981
-520.000000 -918.657079 240.026977
-520.000000 -916.698307 240.430974
-520.000000 -914.739535 240.834971
-520.000000 -912.780764 241.238968
-520.000000 -910.821992 241.642964
-520.000000 -908.863220 242.046961
-520.000000 -906.904448 242.450958
-520.000000 -904.945677 242.854954
-520.000000 -902.986905 243.258951
-520.000000 -901.028133 243.662948
-520.000000 -899.069362 244.066944
-520.000000 -897.110590 244.470941
-520.000000 -895.151818 244.874938
-520.000000 -893.193046 245.278934
-520.000000 -891.234275 245.682931
-520.000000 -889.275503 246.086928
-520.000000 -887.316731 246.490924
-520.000000 -885.357959 246.894921
-520.000000 -883.399188 247.298918
-520.000000 -880.000000 248.000000
-520.000000 -880.000000 248.000000
-520.133038 -878.004430 248.000000
-520.266076 -876.008859 248.000000
-520.399114 -874.013289 248.000000
-520.532152 -872.017719 248.000000
-520.665190 -870.022148 248.000000
-520.798228 -868.026578 248.000000
-520.931266 -866.031008 248.000000
-521.064304 -864.035437 248.000000
-521.197342 -862.039867 248.000000
-521.330380 -860.044297 248.000000
-521.463418 -858.048727 248.000000
-521.596456 -856.053156 248.000000
-521.729494 -854.057586 248.000000
-521.862532 -852.062016 248.000000
-521.995570 -850.066445 248.000000
-522.128608 -848.070875 248.000000
-522.261646 -846.075305 248.000000
-522.394684 -844.079734 248.000000
-522.527722 -842.084164 248.000000
-522.660760 -840.088594 248.000000
-522.793798 -838.093023 248.000000
-522.926836 -836.097453 248.000000
-523.059874 -834.101883 248.000000
-523.192913 -832.106312 248.000000
-523.325951 -830.110742 248.000000
-523.458989 -828.115172 248.000000
-523.592027 -826.119601 248.000000
-523.725065 -824.124031 248.000000
-523.858103 -822.128461 248.000000
-523.991141 -820.132891 248.000000
-524.124179 -818.137320 248.000000
-524.257217 -816.141750 248.000000
-524.390255 -814.146180 248.000000
-524.523293 -812.150609 248.000000
-524.656331 -810.155039 248.000000
-524.789369 -808.159469 248.000000
-524.922407 -806.163898 248.000000
-525.055445 -804.168328 248.000000
-525.188483 -802.172758 248.000000
-525.321521 -800.177187 248.000000
-525.454559 -798.181617 248.000000
-525.587597 -796.186047 248.000000
-525.720635 -794.190476 248.000000
-525.853673 -792.194906 248.000000
-525.986711 -790.199336 248.000000
-526.119749 -788.203765 248.000000
-526.252787 -786.208195 248.000000
-526.385825 -784.212625 248.000000
-526.518863 -782.217055 248.000000
-526.651901 -780.221484 248.000000
-526.784939 -778.225914 248.000000
-526.917977 -776.230344 248.000000
-527.051015 -774.234773 248.000000
-527.184053 -772.239203 248.000000
-527.317091 -770.243633 248.000000
-527.450129 -768.248062 248.000000
-527.583167 -766.252492 248.000000
-527.716205 -764.256922 248.000000
-527.849243 -762.261351 248.000000
-528.000000 -760.000000 248.000000
-528.000000 -760.000000 248.000000
-528.833852 -761.794595 247.709964
-529.667704 -763.589189 247.419929
-530.501556 -765.383784 247.129893
-531.335408 -767.178379 246.839858
-532.169260 -768.972973 246.549822
-533.003112 -770.767568 246.259787
-533.836965 -772.562163 245.969751
-534.670817 -774.356758 245.679716
-535.504669 -776.151352 245.389680
-536.338521 -777.945947 245.099645
-537.172373 -779.740542 244.809609
-538.006225 -781.535136 244.519574
-538.840077 -783.329731 244.229538
-539.673929 -785.124326 243.939503
-540.507781 -786.918920 243.649467
-541.341633 -788.713515 243.359432
-542.175485 -790.508110 243.069396
-543.009337 -792.302704 242.779361
-543.843190 -794.097299 242.489325
-544.677042 -795.891894 242.199290
-545.510894 -797.686489 241.909254
-546.344746 -799.481083 241.619219
-547.178598 -801.275678 241.329183
-548.012450 -803.070273 241.039148
-548.846302 -804.864867 240.749112
-549.680154 -806.659462 240.459077
-550.514006 -808.454057 240.169041
-551.347858 -810.248651 239.879006
-552.181710 -812.043246 239.588970
-553.015562 -813.837841 239.298935
-553.849414 -815.632436 239.008899
-554.683267 -817.427030 238.718864
-555.517119 -819.221625 238.428828
-556.350971 -821.016220 238.138793
-557.184823 -822.810814 237.848757
-558.018675 -824.605409 237.558722
-558.852527 -826.400004 237.268686
-559.686379 -828.194598 236.978651
-560.520231 -829.989193 236.688615
-561.354083 -831.783788 236.398580
-562.187935 -833.578382 236.108544
-563.021787 -835.372977 235.818509
-563.855639 -837.167572 235.528473
-564.689492 -838.962167 235.238438
-565.523344 -840.756761 234.948402
-566.357196 -842.551356 234.658367
-567.191048 -844.345951 234.368331
-568.024900 -846.140545 234.078296
-568.858752 -847.935140 233.788260
-569.692604 -849.729735 233.498225
-570.526456 -851.524329 233.208189
-571.360308 -853.318924 232.918154
-572.194160 -855.113519 232.628118
-573.028012 -856.908113 232.338083
-573.861864 -858.702708 232.048047
-574.695716 -860.497303 231.758012
-575.529569 -862.291898 231.467976
-576.363421 -864.086492 231.177941
-577.197273 -865.881087 230.887905
-578.031125 -867.675682 230.597870
-578.864977 -869.470276 230.307834
-579.698829 -871.264871 230.017799
-580.532681 -873.059466 229.727763
-581.366533 -874.854060 229.437728
-582.200385 -876.648655 229.147692
-583.034237 -878.443250 228.857657
-583.868089 -880.237844 228.567621
-584.701941 -882.032439 228.277586
-585.535794 -883.827034 227.987550
-586.369646 -885.621629 227.697515
-587.203498 -887.416223 227.407479
-588.037350 -889.210818 227.117444
-588.871202 -891.005413 226.827408
-589.705054 -892.800007 226.537373
-590.538906 -894.594602 226.247337
-591.372758 -896.389197 225.957302
-592.206610 -898.183791 225.667266
-593.040462 -899.978386 225.377231
-593.874314 -901.772981 225.087195
-594.708166 -903.567575 224.797160
-595.542018 -905.362170 224.507124
-596.375871 -907.156765 224.217089
-597.209723 -908.951360 223.927053
-598.043575 -910.745954 223.637017
-598.877427 -912.540549 223.346982
-599.711279 -914.335144 223.056946
-600.545131 -916.129738 222.766911
-601.378983 -917.924333 222.476875
-602.212835 -919.718928 222.186840
-603.046687 -921.513522 221.896804
-603.880539 -923.308117 221.606769
-604.714391 -925.102712 221.316733
-605.548243 -926.897307 221.026698
-606.382096 -928.691901 220.736662
-607.215948 -930.486496 220.446627
-608.049800 -932.281091 220.156591
-608.883652 -934.075685 219.866556
-609.717504 -935.870280 219.576520
-610.551356 -937.664875 219.286485
-611.385208 -939.459469 218.996449
-612.219060 -941.254064 218.706414
-613.052912 -943.048659 218.416378
-613.886764 -944.843253 218.126343
-614.720616 -946.637848 217.836307
-615.554468 -948.432443 217.546272
-616.388320 -950.227038 217.256236
-617.222173 -952.021632 216.966201
-618.056025 -953.816227 216.676165
-618.889877 -955.610822 216.386130
-619.723729 -957.405416 216.096094
-620.557581 -959.200011 215.806059
-621.391433 -960.994606 215.516023
-622.225285 -962.789200 215.225988
-623.059137 -964.583795 214.935952
-623.892989 -966.378390 214.645917
-624.726841 -968.172984 214.355881
-625.560693 -969.967579 214.065846
-626.394545 -971.762174 213.775810
-627.228398 -973.556769 213.485775
-628.062250 -975.351363 213.195739
-628.896102 -977.145958 212.905704
-629.729954 -978.940553 212.615668
-630.563806 -980.735147 212.325633
-631.397658 -982.529742 212.035597
-632.231510 -984.324337 211.745562
-633.065362 -986.118931 211.455526
-633.899214 -987.913526 211.165491
-634.733066 -989.708121 210.875455
-635.566918 -991.502715 210.585420
-636.400770 -993.297310 210.295384
-637.234622 -995.091905 210.005349
-638.068475 -996.886500 209.715313
-638.902327 -998.681094 209.425278
-639.736179 -1000.475689 209.135242
-640.570031 -1002.270284 208.845207
-641.403883 -1004.064878 208.555171
-642.237735 -1005.859473 208.265136
-643.071587 -1007.654068 207.975100
-643.905439 -1009.448662 207.685065
-644.739291 -1011.243257 207.395029
-645.573143 -1013.037852 207.104994
-646.406995 -1014.832446 206.814958
-647.240847 -1016.627041 206.524923
-648.074699 -1018.421636 206.234887
-648.908552 -1020.216231 205.944852
-649.742404 -1022.010825 205.654816
-650.576256 -1023.805420 205.364781
-651.410108 -1025.600015 205.074745
-652.243960 -1027.394609 204.784710
-653.077812 -1029.189204 204.494674
-653.911664 -1030.983799 204.204639
-654.745516 -1032.778393 203.914603
-655.579368 -1034.572988 203.624568
-656.413220 -1036.367583 203.334532
-657.247072 -1038.162178 203.044497
-658.080924 -1039.956772 202.754461
-658.914777 -1041.751367 202.464426
-659.748629 -1043.545962 202.174390
-660.582481 -1045.340556 201.884355
-661.416333 -1047.135151 201.594319
-662.250185 -1048.929746 201.304284
-663.084037 -1050.724340 201.014248
-663.917889 -1052.518935 200.724213
-664.751741 -1054.313530 200.434177
-665.585593 -1056.108124 200.144142
-666.419445 -1057.902719 199.854106
-667.253297 -1059.697314 199.564070
-668.087149 -1061.491909 199.274035
-668.921001 -1063.286503 198.983999
-669.754854 -1065.081098 198.693964
-670.588706 -1066.875693 198.403928
-671.422558 -1068.670287 198.113893
-672.256410 -1070.464882 197.823857
-673.090262 -1072.259477 197.533822
-673.924114 -1074.054071 197.243786
-674.757966 -1075.848666 196.953751
-675.591818 -1077.643261 196.663715
-676.425670 -1079.437855 196.373680
-677.259522 -1081.232450 196.083644
-678.093374 -1083.027045 195.793609
-678.927226 -1084.821640 195.503573
-679.761079 -1086.616234 195.213538
-680.594931 -1088.410829 194.923502
-681.428783 -1090.205424 194.633467
-682.262635 -1092.000018 194.343431
-683.096487 -1093.794613 194.053396
-683.930339 -1095.589208 193.763360
-684.764191 -1097.383802 193.473325
-685.598043 -1099.178397 193.183289
-686.431895 -1100.972992 192.893254
-687.265747 -1102.767586 192.603218
-688.099599 -1104.562181 192.313183
-688.933451 -1106.356776 192.023147
-689.767303 -1108.151371 191.733112
-690.601156 -1109.945965 191.443076
-691.435008 -1111.740560 191.153041
-692.268860 -1113.535155 190.863005
-693.102712 -1115.329749 190.572970
-693.936564 -1117.124344 190.282934
-694.770416 -1118.918939 189.992899
-695.604268 -1120.713533 189.702863
-696.438120 -1122.508128 189.412828
-697.271972 -1124.302723 189.122792
-698.105824 -1126.097317 188.832757
-698.939676 -1127.891912 188.542721
-699.773528 -1129.686507 188.252686
-700.607381 -1131.481102 187.962650
-701.441233 -1133.275696 187.672615
-702.275085 -1135.070291 187.382579
-703.108937 -1136.864886 187.092544
-703.942789 -1138.659480 186.802508
-704.776641 -1140.454075 186.512473
-705.610493 -1142.248670 186.222437
-706.444345 -1144.043264 185.932402
-707.278197 -1145.837859 185.642366
-708.112049 -1147.632454 185.352331
-708.945901 -1149.427049 185.062295
-709.779753 -1151.221643 184.772260
-710.613605 -1153.016238 184.482224
-712.000000 -1156.000000 184.000000
-712.000000 -1156.000000 184.000000
-713.427975 -1154.599752 183.986136
-714.855951 -1153.199504 183.972272
-716.283926 -1151.799257 183.958408
-717.711902 -1150.399009 183.944545
-719.139877 -1148.998761 183.930681
-720.567853 -1147.598513 183.916817
-721.995828 -1146.198265 183.902953
-723.423804 -1144.798018 183.889089
-724.851779 -1143.397770 183.875225
-726.279755 -1141.997522 183.861362
-727.707730 -1140.597274 183.847498
-729.135706 -1139.197027 183.833634
-730.563681 -1137.796779 183.819770
-731.991657 -1136.396531 183.805906
-733.419632 -1134.996283 183.792042
-734.847607 -1133.596035 183.778179
-736.275583 -1132.195788 183.764315
-737.703558 -1130.795540 183.750451
-739.131534 -1129.395292 183.736587
-740.559509 -1127.995044 183.722723
-741.987485 -1126.594796 183.708859
-743.415460 -1125.194549 183.694996
-744.843436 -1123.794301 183.681132
-746.271411 -1122.394053 183.667268
-747.699387 -1120.993805 183.653404
-749.127362 -1119.593558 183.639540
-750.555338 -1118.193310 183.625676
-751.983313 -1116.793062 183.611812
-753.411289 -1115.392814 183.597949
-754.839264 -1113.992566 183.584085
-756.267239 -1112.592319 183.570221
-757.695215 -1111.192071 183.556357
-759.123190 -1109.791823 183.542493
-760.551166 -1108.391575 183.528629
-761.979141 -1106.991327 183.514766
-763.407117 -1105.591080 183.500902
-764.835092 -1104.190832 183.487038
-766.263068 -1102.790584 183.473174
-767.691043 -1101.390336 183.459310
-769.119019 -1099.990089 183.445446
-770.546994 -1098.589841 183.431583
-771.974970 -1097.189593 183.417719
-773.402945 -1095.789345 183.403855
-774.830920 -1094.389097 183.389991
-776.258896 -1092.988850 183.376127
-777.686871 -1091.588602 183.362263
-779.114847 -1090.188354 183.348400
-780.542822 -1088.788106 183.334536
-781.970798 -1087.387858 183.320672
-783.398773 -1085.987611 183.306808
-784.826749 -1084.587363 183.292944
-786.254724 -1083.187115 183.279080
-787.682700 -1081.786867 183.265217
-789.110675 -1080.386620 183.251353
-790.538651 -1078.986372 183.237489
-791.966626 -1077.586124 183.223625
-793.394602 -1076.185876 183.209761
-794.822577 -1074.785628 183.195897
-796.250552 -1073.385381 183.182033
-797.678528 -1071.985133 183.168170
-799.106503 -1070.584885 183.154306
-800.534479 -1069.184637 183.140442
-801.962454 -1067.784389 183.126578
-803.390430 -1066.384142 183.112714
-804.818405 -1064.983894 183.098850
-806.246381 -1063.583646 183.084987
-807.674356 -1062.183398 183.071123
-809.102332 -1060.783151 183.057259
-810.530307 -1059.382903 183.043395
-811.958283 -1057.982655 183.029531
-813.386258 -1056.582407 183.015667
-814.814234 -1055.182159 183.001804
-816.242209 -1053.781912 182.987940
-817.670184 -1052.381664 182.974076
-819.098160 -1050.981416 182.960212
-820.526135 -1049.581168 182.946348
-821.954111 -1048.180920 182.932484
-823.382086 -1046.780673 182.918621
-824.810062 -1045.380425 182.904757
-826.238037 -1043.980177 182.890893
-827.666013 -1042.579929 182.877029
-829.093988 -1041.179682 182.863165
-830.521964 -1039.779434 182.849301
-831.949939 -1038.379186 182.835437
-833.377915 -1036.978938 182.821574
-834.805890 -1035.578690 182.807710
-836.233866 -1034.178443 182.793846
-837.661841 -1032.778195 182.779982
-839.089816 -1031.377947 182.766118
-840.517792 -1029.977699 182.752254
-841.945767 -1028.577451 182.738391
-843.373743 -1027.177204 182.724527
-844.801718 -1025.776956 182.710663
-846.229694 -1024.376708 182.696799
-847.657669 -1022.976460 182.682935
-849.085645 -1021.576212 182.669071
-850.513620 -1020.175965 182.655208
-851.941596 -1018.775717 182.641344
-853.369571 -1017.375469 182.627480
-854.797547 -1015.975221 182.613616
-856.225522 -1014.574974 182.599752
-857.653497 -1013.174726 182.585888
-859.081473 -1011.774478 182.572025
-860.509448 -1010.374230 182.558161
-861.937424 -1008.973982 182.544297
-863.365399 -1007.573735 182.530433
-864.793375 -1006.173487 182.516569
-866.221350 -1004.773239 182.502705
-867.649326 -1003.372991 182.488841
-869.077301 -1001.972743 182.474978
-870.505277 -1000.572496 182.461114
-871.933252 -999.172248 182.447250
-873.361228 -997.772000 182.433386
-874.789203 -996.371752 182.419522
-876.217179 -994.971505 182.405658
-877.645154 -993.571257 182.391795
-879.073129 -992.171009 182.377931
-880.501105 -990.770761 182.364067
-881.929080 -989.370513 182.350203
-883.357056 -987.970266 182.336339
-884.785031 -986.570018 182.322475
-886.213007 -985.169770 182.308612
-887.640982 -983.769522 182.294748
-889.068958 -982.369274 182.280884
-890.496933 -980.969027 182.267020
-891.924909 -979.568779 182.253156
-893.352884 -978.168531 182.239292
-894.780860 -976.768283 182.225429
-896.208835 -975.368036 182.211565
-897.636811 -973.967788 182.197701
-899.064786 -972.567540 182.183837
-900.492761 -971.167292 182.169973
-901.920737 -969.767044 182.156109
-903.348712 -968.366797 182.142246
-904.776688 -966.966549 182.128382
-906.204663 -965.566301 182.114518
-907.632639 -964.166053 182.100654
-909.060614 -962.765805 182.086790
-910.488590 -961.365558 182.072926
-911.916565 -959.965310 182.059062
-913.344541 -958.565062 182.045199
-914.772516 -957.164814 182.031335
-916.200492 -955.764567 182.017471
-917.628467 -954.364319 182.003607
-919.056443 -952.964071 181.989743
-920.484418 -951.563823 181.975879
-921.912393 -950.163575 181.962016
-923.340369 -948.763328 181.948152
-924.768344 -947.363080 181.934288
-926.196320 -945.962832 181.920424
-927.624295 -944.562584 181.906560
-929.052271 -943.162336 181.892696
-930.480246 -941.762089 181.878833
-931.908222 -940.361841 181.864969
-933.336197 -938.961593 181.851105
-934.764173 -937.561345 181.837241
-936.192148 -936.161098 181.823377
-937.620124 -934.760850 181.809513
-939.048099 -933.360602 181.795650
-940.476074 -931.960354 181.781786
-941.904050 -930.560106 181.767922
-943.332025 -929.159859 181.754058
-944.760001 -927.759611 181.740194
-946.187976 -926.359363 181.726330
-947.615952 -924.959115 181.712466
-949.043927 -923.558867 181.698603
-950.471903 -922.158620 181.684739
-951.899878 -920.758372 181.670875
-953.327854 -919.358124 181.657011
-954.755829 -917.957876 181.643147
-956.183805 -916.557628 181.629283
-957.611780 -915.157381 181.615420
-959.039756 -913.757133 181.601556
-960.467731 -912.356885 181.587692
-961.895706 -910.956637 181.573828
-963.323682 -909.556390 181.559964
-964.751657 -908.156142 181.546100
-966.179633 -906.755894 181.532237
-967.607608 -905.355646 181.518373
-969.035584 -903.955398 181.504509
-970.463559 -902.555151 181.490645
-971.891535 -901.154903 181.476781
-973.319510 -899.754655 181.462917
-974.747486 -898.354407 181.449054
-976.175461 -896.954159 181.435190
-977.603437 -895.553912 181.421326
-979.031412 -894.153664 181.407462
-980.459388 -892.753416 181.393598
-981.887363 -891.353168 181.379734
-983.315338 -889.952921 181.365871
-984.743314 -888.552673 181.352007
-986.171289 -887.152425 181.338143
-987.599265 -885.752177 181.324279
-989.027240 -884.351929 181.310415
-990.455216 -882.951682 181.296551
-991.883191 -881.551434 181.282687
-993.311167 -880.151186 181.268824
-994.739142 -878.750938 181.254960
-996.167118 -877.350690 181.241096
-997.595093 -875.950443 181.227232
-999.023069 -874.550195 181.213368
-1000.451044 -873.149947 181.199504
-1001.879020 -871.749699 181.185641
-1003.306995 -870.349452 181.171777
-1004.734970 -868.949204 181.157913
-1006.162946 -867.548956 181.144049
-1007.590921 -866.148708 181.130185
-1009.018897 -864.748460 181.116321
-1010.446872 -863.348213 181.102458
-1011.874848 -861.947965 181.088594
-1013.302823 -860.547717 181.074730
-1014.730799 -859.147469 181.060866
-1016.158774 -857.747221 181.047002
-1017.586750 -856.346974 181.033138
-1019.014725 -854.946726 181.019275
-1020.442701 -853.546478 181.005411
-1021.870676 -852.146230 180.991547
-1023.298651 -850.745983 180.977683
-1024.726627 -849.345735 180.963819
-1026.154602 -847.945487 180.949955
-1027.582578 -846.545239 180.936091
-1029.010553 -845.144991 180.922228
-1030.438529 -843.744744 180.908364
-1031.866504 -842.344496 180.894500
-1033.294480 -840.944248 180.880636
-1034.722455 -839.544000 180.866772
-1036.150431 -838.143752 180.852908
-1037.578406 -836.743505 180.839045
-1039.006382 -835.343257 180.825181
-1040.434357 -833.943009 180.811317
-1041.862333 -832.542761 180.797453
-1043.290308 -831.142514 180.783589
-1044.718283 -829.742266 180.769725
-1046.146259 -828.342018 180.755862
-1047.574234 -826.941770 180.741998
-1049.002210 -825.541522 180.728134
-1050.430185 -824.141275 180.714270
-1051.858161 -822.741027 180.700406
-1053.286136 -821.340779 180.686542
-1054.714112 -819.940531 180.672679
-1056.142087 -818.540283 180.658815
-1057.570063 -817.140036 180.644951
-1058.998038 -815.739788 180.631087
-1060.426014 -814.339540 180.617223
-1061.853989 -812.939292 180.603359
-1063.281965 -811.539045 180.589495
-1064.709940 -810.138797 180.575632
-1066.137915 -808.738549 180.561768
-1067.565891 -807.338301 180.547904
-1068.993866 -805.938053 180.534040
-1070.421842 -804.537806 180.520176
-1071.849817 -803.137558 180.506312
-1073.277793 -801.737310 180.492449
-1074.705768 -800.337062 180.478585
-1076.133744 -798.936814 180.464721
-1077.561719 -797.536567 180.450857
-1078.989695 -796.136319 180.436993
-1080.417670 -794.736071 180.423129
-1081.845646 -793.335823 180.409266
-1083.273621 -791.935575 180.395402
-1084.701597 -790.535328 180.381538
-1086.129572 -789.135080 180.367674
-1087.557547 -787.734832 180.353810
-1088.985523 -786.334584 180.339946
-1090.413498 -784.934337 180.326083
-1091.841474 -783.534089 180.312219
-1093.269449 -782.133841 180.298355
-1094.697425 -780.733593 180.284491
-1096.125400 -779.333345 180.270627
-1097.553376 -777.933098 180.256763
-1098.981351 -776.532850 180.242900
-1100.409327 -775.132602 180.229036
-1101.837302 -773.732354 180.215172
-1103.265278 -772.332106 180.201308
-1104.693253 -770.931859 180.187444
-1106.121228 -769.531611 180.173580
-1107.549204 -768.131363 180.159716
-1108.977179 -766.731115 180.145853
-1110.405155 -765.330868 180.131989
-1111.833130 -763.930620 180.118125
-1113.261106 -762.530372 180.104261
-1114.689081 -761.130124 180.090397
-1116.117057 -759.729876 180.076533
-1117.545032 -758.329629 180.062670
-1118.973008 -756.929381 180.048806
-1120.400983 -755.529133 180.034942
-1121.828959 -754.128885 180.021078
-1124.000000 -752.000000 180.000000
-1124.000000 -752.000000 180.000000
-1124.000000 -750.728585 178.456140
-1124.000000 -749.457171 176.912279
-1124.000000 -748.185756 175.368419
-1124.000000 -746.914342 173.824558
-1124.000000 -745.642927 172.280698
-1124.000000 -744.371513 170.736837
-1124.000000 -743.100098 169.192977
-1124.000000 -741.828684 167.649116
-1124.000000 -740.557269 166.105256
-1124.000000 -739.285855 164.561395
-1124.000000 -738.014440 163.017535
-1124.000000 -736.743026 161.473674
-1124.000000 -735.471611 159.929814
-1124.000000 -734.200197 158.385953
-1124.000000 -732.928782 156.842093
-1124.000000 -731.657368 155.298232
-1124.000000 -730.385953 153.754372
-1124.000000 -729.114539 152.210512
-1124.000000 -727.843124 150.666651
-1124.000000 -726.571710 149.122791
-1124.000000 -725.300295 147.578930
-1124.000000 -724.028881 146.035070
-1124.000000 -722.757466 144.491209
-1124.000000 -721.486052 142.947349
-1124.000000 -720.214637 141.403488
-1124.000000 -718.943223 139.859628
-1124.000000 -717.671808 138.315767
-1124.000000 -716.400394 136.771907
-1124.000000 -715.128979 135.228046
-1124.000000 -713.857565 133.684186
-1124.000000 -712.586150 132.140325
-1124.000000 -711.314736 130.596465
-1124.000000 -710.043321 129.052604
-1124.000000 -708.771907 127.508744
-1124.000000 -707.500492 125.964884
-1124.000000 -706.229078 124.421023
-1124.000000 -704.957663 122.877163
-1124.000000 -703.686249 121.333302
-1124.000000 -702.414834 119.789442
-1124.000000 -701.143420 118.245581
-1124.000000 -699.872005 116.701721
-1124.000000 -698.600591 115.157860
-1124.000000 -697.329176 113.614000
-1124.000000 -696.000000 112.000000
-1124.000000 -696.000000 112.000000
-1125.689852 -694.971394 111.706113
-1127.379704 -693.942789 111.412225
-1129.069557 -692.914183 111.118338
-1130.759409 -691.885577 110.824451
-1132.449261 -690.856971 110.530563
-1134.139113 -689.828366 110.236676
-1135.828966 -688.799760 109.942789
-1137.518818 -687.771154 109.648901
-1139.208670 -686.742549 109.355014
-1140.898522 -685.713943 109.061127
-1142.588374 -684.685337 108.767239
-1144.278227 -683.656732 108.473352
-1145.968079 -682.628126 108.179465
-1147.657931 -681.599520 107.885577
-1149.347783 -680.570914 107.591690
-1151.037636 -679.542309 107.297803
-1152.727488 -678.513703 107.003915
-1154.417340 -677.485097 106.710028
-1156.107192 -676.456492 106.416140
-1157.797044 -675.427886 106.122253
-1159.486897 -674.399280 105.828366
-1161.176749 -673.370675 105.534478
-1162.866601 -672.342069 105.240591
-1164.556453 -671.313463 104.946704
-1166.246306 -670.284857 104.652816
-1167.936158 -669.256252 104.358929
-1169.626010 -668.227646 104.065042
-1171.315862 -667.199040 103.771154
-1173.005715 -666.170435 103.477267
-1174.695567 -665.141829 103.183380
-1176.385419 -664.113223 102.889492
-1178.075271 -663.084618 102.595605
-1179.765123 -662.056012 102.301718
-1181.454976 -661.027406 102.007830
-1183.144828 -659.998800 101.713943
-1184.834680 -658.970195 101.420056
-1186.524532 -657.941589 101.126168
-1188.214385 -656.912983 100.832281
-1189.904237 -655.884378 100.538394
-1191.594089 -654.855772 100.244506
-1193.283941 -653.827166 99.950619
-1194.973793 -652.798561 99.656732
-1196.663646 -651.769955 99.362844
-1198.353498 -650.741349 99.068957
-1200.043350 -649.712743 98.775070
-1201.733202 -648.684138 98.481182
-1203.423055 -647.655532 98.187295
-1205.112907 -646.626926 97.893408
-1206.802759 -645.598321 97.599520
-1208.492611 -644.569715 97.305633
-1210.182463 -643.541109 97.011745
-1211.872316 -642.512504 96.717858
-1213.562168 -641.483898 96.423971
-1216.000000 -640.000000 96.000000
-1216.000000 -640.000000 96.000000
-1216.000000 -639.105573 94.211146
-1216.000000 -638.211146 92.422291
-1216.000000 -637.316718 90.633437
-1216.000000 -636.422291 88.844582
-1216.000000 -635.527864 87.055728
-1216.000000 -634.633437 85.266874
-1216.000000 -633.739010 83.478019
-1216.000000 -632.000000 80.000000
-1216.000000 -632.000000 80.000000
-1216.000000 -630.037703 79.613487
